# .PCD v0.7 - Point Cloud Data file format
VERSION 0.7
FIELDS x y z normal_x normal_y normal_z
SIZE 4 4 4 4 4 4
TYPE F F F F F F
COUNT 1 1 1 1 1 1
WIDTH 680
HEIGHT 1
VIEWPOINT 0 0 0 1 0 0 0
POINTS 680
DATA ascii
-0.068326697 0.10214552 -0.053042967 -0.45681119 0.67303807 -0.58167356
-0.07022246 0.097860172 -0.056275964 -0.46958402 0.60565621 -0.64239591
-0.061714415 0.11101171 -0.046563573 -0.40684748 0.7412799 -0.53383541
-0.078203864 0.10096586 -0.045392618 -0.58018374 0.66092706 -0.47598657
-0.083322473 0.098105766 0.049231358 -0.63108778 0.616629 0.47063565
-0.084959492 0.095441401 0.05061736 -0.66928363 0.59085983 0.45049426
-0.10752084 0.085233442 -0.0073791747 -0.85572028 0.50503194 -0.11263442
-0.11043043 0.067775041 -0.030821124 -0.86669892 0.35510632 -0.35033309
-0.11857307 0.047349893 -0.02494223 -0.93741846 0.18412466 -0.29554316
-0.093178108 0.0046158214 -0.083866872 -0.57728863 0.33578396 -0.74430364
-0.051422674 0.10061803 -0.064377688 -0.3247667 0.64447409 -0.69222885
0.018167797 0.12689359 -0.013971936 -0.42963839 0.16943303 -0.88696361
-0.034473352 0.12029631 -0.046579476 -0.083761752 0.84696376 -0.52501166
-0.079243049 0.10513978 0.045333169 -0.57134891 0.70430279 0.42132998
-0.13746734 -0.016268134 0.042469595 -0.79013628 0.54541469 0.27965769
-0.13948898 -0.01719022 0.038451947 -0.7079581 0.67870343 0.19534111
-0.13429783 -0.017979521 0.05376891 -0.73156846 0.58189642 0.35525376
-0.068904839 -0.006617913 0.11004543 -0.38101226 0.3292675 0.86395216
-0.032103091 0.12595423 0.056446515 -0.97382921 -0.076574519 -0.21399543
-0.030767929 0.12562418 0.049526572 -0.9963302 0.084384583 -0.014361772
-0.030960592 0.12373452 0.051789407 -0.9590224 0.2822386 0.024868747
-0.13798915 -0.019250125 0.050215017 -0.5299722 0.8147437 0.23520866
-0.13637348 -0.017488662 0.048475198 -0.69142163 0.6599673 0.29390514
-0.060135145 -0.0075321593 0.11371343 -0.29065666 0.33826593 0.89503962
0.022566337 0.096913069 0.065178283 0.49320823 0.56508118 0.66138476
-0.064302899 0.12245797 -0.02172593 -0.43713376 0.87142086 -0.2225773
-0.064484656 0.12317149 -0.018033201 -0.40563986 0.90693575 -0.11368763
-0.067462415 0.12196143 -0.014413859 -0.4576543 0.873954 -0.16357832
-0.066765323 0.12216213 -0.017947895 -0.48600706 0.86368471 -0.13359174
-0.068338975 0.12065732 -0.020597862 -0.50463754 0.83994037 -0.19960473
-0.032595728 0.12291075 0.051433414 -0.20790596 0.91172451 0.35430849
-0.071639143 0.11904157 -0.016561855 -0.4475992 0.88046581 -0.15631989
-0.069732524 0.12042448 -0.015454096 -0.47741437 0.85128266 -0.21770231
-0.0400596 0.1225621 0.048677031 -0.21570072 0.85591 0.46999153
-0.070723489 0.12180892 -0.0087896837 -0.47466773 0.87428433 -0.10157904
-0.070107661 0.12252194 -0.0045617293 -0.51786262 0.85301048 -0.064747259
-0.031140357 0.12207615 0.053443022 -0.83224529 0.50680417 0.22476274
-0.016183473 0.11774565 0.059116125 0.081170976 0.81218344 0.57772839
-0.017988106 0.11556145 0.062150158 0.066291779 0.76785809 0.63718164
-0.072856866 0.12107165 -0.0051662531 -0.4976739 0.86614263 -0.0460269
-0.073841661 0.12011509 -0.0034538272 -0.54269046 0.83732623 -0.066125631
-0.031523395 0.12109935 0.055087477 -0.98650724 0.12747417 -0.10273616
-0.056412719 0.12206338 0.039663512 -0.30992645 0.86630398 0.39174467
-0.076718345 0.11292761 -0.027321488 -0.5590325 0.76168573 -0.32759511
-0.075732954 0.11927093 -0.0061125401 -0.52830279 0.84684432 -0.061252162
-0.076352991 0.1185129 -0.0037507331 -0.45723173 0.88660467 -0.069803394
-0.06651967 0.12120075 0.02933613 -0.42747656 0.85404319 0.29643676
-0.052434653 0.12166214 0.043764081 -0.35034797 0.86190867 0.36656594
-0.046373811 0.11944234 0.051891271 -0.12638891 0.87552267 0.46635509
-0.062508591 0.12098086 0.035657745 -0.44819784 0.85697907 0.25437447
-0.016848089 0.11063235 0.067877822 0.070581578 0.76290166 0.64265096
-0.070688635 0.11973273 0.027121024 -0.44653788 0.83598244 0.31896439
-0.081601731 0.112901 -0.016922552 -0.60913724 0.75527042 -0.24190728
-0.031279273 0.11285372 0.064855158 -0.08659561 0.75850916 0.64588386
-0.016330335 0.10911948 0.06932044 0.1020495 0.69082844 0.71578133
-0.077760085 0.11727338 0.017666573 -0.57935393 0.79952735 0.15844868
-0.067190357 0.11979184 0.03288956 -0.43450829 0.84851992 0.30202198
-0.082041137 0.11053607 -0.020729238 -0.62581491 0.72413522 -0.28980163
-0.083768032 0.11074784 -0.018326389 -0.6034953 0.74325842 -0.28872353
-0.085783474 0.11034764 -0.013392003 -0.64091492 0.74431008 -0.18770069
-0.08174859 0.10992457 -0.025114393 -0.62758428 0.73629963 -0.25298578
-0.08457274 0.10815972 -0.021664528 -0.60509896 0.74162227 -0.28957313
-0.079689629 0.11681492 0.012103617 -0.58396804 0.80627304 0.094371684
-0.07363195 0.11743997 0.028550025 -0.53125566 0.79227114 0.30012456
-0.014253448 0.10606124 0.072094344 0.07942345 0.71055222 0.69914842
-0.069531709 0.11655492 0.038013015 -0.49547189 0.78595924 0.36983332
-0.03114734 0.10859791 0.06971515 -0.20038421 0.7259438 0.65791553
-0.086503327 0.10812826 -0.018963555 -0.63594258 0.72762299 -0.25718269
-0.0343883 0.10885817 0.068956286 0.014691055 0.72118551 0.69258696
-0.032689851 0.10705259 0.07031972 -0.062426258 0.69055396 0.72058249
-0.081010126 0.11526302 0.01610624 -0.59786391 0.78944808 0.13903694
-0.076204747 0.1148465 0.030975448 -0.56124932 0.77671796 0.28584832
-0.06712506 0.11651059 0.041016869 -0.46256971 0.79194784 0.39855832
-0.085538693 0.10709602 -0.022126332 -0.64944136 0.72203135 -0.23853239
-0.070923582 0.11314754 0.042988177 -0.53697634 0.74628735 0.39333504
-0.035035577 0.10730576 0.070675075 -0.0059837704 0.71806782 0.69594812
-0.086911894 0.10544375 -0.022804163 -0.64755321 0.6902194 -0.32291335
-0.087937266 0.10622884 -0.020614339 -0.62196279 0.7079404 -0.33463949
-0.086517304 0.10568333 -0.025399869 -0.64878869 0.71351898 -0.26450863
-0.080135889 0.1128323 0.02765432 -0.59912395 0.76489067 0.23662969
-0.088552833 0.10360439 -0.023671839 -0.65822321 0.6953913 -0.28839928
-0.035693787 0.10519508 0.072724581 -0.069296613 0.6951291 0.71553797
-0.032834072 0.10493724 0.072288372 -0.09491837 0.68768185 0.71978146
-0.071238458 0.1117771 0.045166563 -0.52085519 0.75020278 0.40731645
-0.14187637 -0.020153871 0.046725437 -0.30344203 0.93554264 0.18078701
-0.088687859 0.10328049 -0.026185544 -0.70447165 0.66406792 -0.25046861
-0.082020491 0.11049207 0.030560184 -0.63494921 0.73598462 0.23487678
-0.085212305 0.11074551 0.021404438 -0.63024175 0.74916071 0.20384926
-0.03513499 0.10305946 0.074720584 -0.035555463 0.65623283 0.75372088
-0.033141077 0.10334335 0.073804051 -0.12505127 0.74909639 0.65055197
-0.091808751 0.099017702 -0.028067322 -0.70165735 0.63935965 -0.31447923
-0.090969965 0.10072094 -0.024965195 -0.69744319 0.65180659 -0.29786274
-0.080802754 0.10993691 0.034707278 -0.58682543 0.74247509 0.32305971
-0.081663333 0.10674201 0.039707869 -0.60873717 0.70852476 0.3569769
-0.076813214 0.11020043 0.04072462 -0.53436273 0.74000567 0.40847149
-0.047810271 0.10500526 0.069777809 -0.27471226 0.69681847 0.66255432
-0.031437952 0.1028078 0.07538455 -0.13202339 0.66130948 0.73840404
-0.095626153 0.101711 -0.0075599253 -0.73612309 0.67459708 -0.055159442
-0.090632431 0.10542058 0.023134135 -0.67727208 0.70257592 0.21838199
-0.033428501 0.099644102 0.076980524 -0.077414803 0.6037969 0.79337066
-0.034072559 0.097802922 0.078615427 -0.12537779 0.62254804 0.77247345
-0.085333504 0.10479184 0.03732042 -0.6379168 0.68635839 0.34924972
-0.074256755 0.10616866 0.050735313 -0.53852832 0.69677699 0.47380373
-0.095406786 0.094270922 -0.02906405 -0.76183856 0.579301 -0.28985032
-0.095777355 0.094466798 -0.026396953 -0.72544914 0.60014099 -0.33697951
-0.1479781 -0.020348553 0.041129451 -0.1934247 0.96649855 0.16872551
-0.099383235 0.097690627 -0.0047819149 -0.75230062 0.63630003 -0.17078392
-0.14394982 -0.019858368 0.042939521 -0.21867785 0.96117896 0.1682739
-0.097391792 0.09412466 -0.025051229 -0.72658211 0.59097928 -0.35046068
-0.05202844 0.096952148 0.07522013 -0.33295971 0.58239591 0.74158871
-0.094289653 0.10109546 0.024854595 -0.71442997 0.65774292 0.23867345
-0.10121386 0.09479522 -0.0087947194 -0.78602874 0.59968013 -0.15014416
-0.087872252 0.098591961 0.043763679 -0.66836727 0.62972075 0.39590159
-0.085723206 0.10200717 0.041649345 -0.64122045 0.66163659 0.38868302
-0.10335083 0.091843143 -0.0098578911 -0.80942339 0.5788275 -0.09896183
-0.082551517 0.095535189 0.054758102 -0.62300712 0.61277246 0.48618189
-0.08668261 0.096257858 0.04863793 -0.62779081 0.57533491 0.52427983
-0.10528303 0.088798121 -0.0077307923 -0.82914448 0.55351156 -0.07839223
-0.10539106 0.088429175 -0.011598011 -0.82814807 0.54419476 -0.13425253
-0.10126999 0.084028222 -0.032277748 -0.79130501 0.51169819 -0.33466727
-0.09775041 0.094705954 0.0304178 -0.75741822 0.59177601 0.27589783
-0.091016978 0.095263094 0.043531433 -0.69398439 0.59145045 0.4105764
-0.094790928 0.095566891 0.035928059 -0.7310493 0.59889501 0.32694441
-0.10730419 0.085694335 -0.0095567275 -0.84830153 0.5162611 -0.11772746
-0.082430862 0.093810342 0.057145964 -0.61030734 0.56629372 0.55392891
-0.10502478 0.090350293 0.011622941 -0.83200306 0.54814774 0.085474029
-0.096753642 0.090837166 0.039482951 -0.74521697 0.57163757 0.34334096
-0.10513691 0.078845128 -0.030177794 -0.79854012 0.46350044 -0.38405958
-0.092817865 0.092773937 0.043785334 -0.69307142 0.57499307 0.43478256
-0.10571338 0.088774167 0.015816158 -0.83239245 0.53670365 0.13810432
-0.092609428 0.088617891 0.04942115 -0.6840589 0.54703987 0.48250568
-0.10316346 0.075967282 -0.038195949 -0.79803532 0.42941111 -0.42278436
-0.10581507 0.076489225 -0.031299375 -0.82375234 0.43966374 -0.35795075
-0.08735957 0.08838369 0.056635391 -0.65135747 0.53810799 0.53495252
-0.10477792 0.088337123 0.022253476 -0.8157019 0.5384953 0.21131507
-0.10684422 0.072696008 -0.034073941 -0.83106267 0.40008366 -0.38635328
-0.099945284 0.087030202 0.038695857 -0.77751625 0.52124351 0.35181615
-0.10688715 0.085314028 0.021174593 -0.8516624 0.49610949 0.16895987
-0.095264442 0.089235015 0.044705208 -0.7275483 0.54347694 0.41869685
-0.10272691 0.088189557 0.029009931 -0.79578131 0.52682608 0.29864213
-0.082684822 0.087962948 0.062329024 -0.60859096 0.52008796 0.59927154
-0.10768308 0.082216598 0.025023956 -0.84432 0.48520914 0.22736937
-0.10984202 0.080292724 0.020765651 -0.8704738 0.46475503 0.16210814
-0.096771345 0.08502692 0.047058191 -0.74531919 0.49607003 0.44543767
-0.097824693 0.081377059 0.049157225 -0.75591773 0.46289414 0.46294546
-0.10579488 0.08357475 0.028790537 -0.82104141 0.50402141 0.26805645
-0.10252663 0.081761189 0.040304113 -0.79522026 0.47425833 0.37776276
-0.11506882 0.070061527 -0.010429825 -0.91181391 0.39342141 -0.11754203
-0.095490374 0.078778043 0.054759733 -0.71408218 0.44065505 0.54397672
-0.090481848 0.080932431 0.059588354 -0.70862061 0.46463647 0.5310092
-0.08786203 0.081475109 0.062102381 -0.643906 0.48531157 0.59148866
-0.10426422 0.077426545 0.041464563 -0.85874397 0.43290955 0.27413309
-0.10461194 0.074996442 0.043738715 -0.80114913 0.42913616 0.4171367
-0.092231147 0.077156752 0.060559105 -0.71220744 0.43109307 0.55400389
-0.085427061 0.075919241 0.068419121 -0.61168712 0.41950902 0.67071003
-0.10040188 0.075356066 0.050797623 -0.76019251 0.43161151 0.48561278
-0.088083364 0.078307375 0.064501904 -0.64747494 0.43752646 0.62397748
-0.084943272 0.072186403 0.071183458 -0.6233685 0.39059192 0.67738515
-0.097640745 0.073856644 0.055832312 -0.72416526 0.40569788 0.55766904
-0.09324877 0.073310062 0.061794303 -0.72181046 0.39928755 0.56529635
-0.11106896 0.069419146 0.034404438 -0.86650968 0.36960825 0.3354871
-0.11707094 0.066801704 0.01196035 -0.93474752 0.34186545 0.096829511
-0.11483208 0.056928758 -0.029380755 -0.91264844 0.25307614 -0.32097709
-0.10842606 0.066895582 0.043217029 -0.86034691 0.34986365 0.37067437
-0.10260446 0.069924876 0.051828485 -0.77821517 0.37617722 0.50286466
-0.11624158 0.066567019 0.018662382 -0.93071598 0.34582934 0.11904188
-0.1184098 0.06086966 -0.0099769672 -0.94227034 0.31234571 -0.12069646
-0.11345387 0.065769449 0.031937014 -0.89546013 0.33172721 0.29683203
-0.095403001 0.067686304 0.062929936 -0.72546804 0.35334104 0.59063286
-0.09969449 0.06550549 0.058577623 -0.74861401 0.34746093 0.56466705
-0.11830952 0.059179191 0.021755738 -0.94253683 0.28752577 0.1701595
-0.10616947 0.069763497 0.04562724 -0.82893258 0.37470058 0.41529647
-0.10738146 0.063866176 0.048160587 -0.83446395 0.3213844 0.44764164
-0.096869938 0.062501825 0.063938923 -0.73782218 0.33229247 0.58753812
-0.11549478 0.064301953 0.026559252 -0.92001373 0.31523234 0.23281845
-0.092713542 0.062827632 0.068759568 -0.69524974 0.30928597 0.64882272
-0.11762333 0.057144694 0.027318086 -0.93024528 0.28100869 0.23596375
-0.10422658 0.064448863 0.053031016 -0.78900617 0.3195928 0.52471966
-0.11534953 0.058509979 0.033811506 -0.91149008 0.28203049 0.2994087
-0.094323069 0.060594693 0.067869507 -0.71737599 0.29147187 0.6327849
-0.12089898 0.051667016 -0.010842419 -0.96558136 0.22039279 -0.13813296
-0.10928543 0.058393504 0.048206139 -0.85589892 0.28934875 0.42862004
-0.097406663 0.059367023 0.064989671 -0.73578972 0.28242192 0.61550969
-0.12137832 0.052410346 0.012001386 -0.96764702 0.23496963 0.091921039
-0.11563324 0.061042752 0.030111969 -0.91649246 0.30344394 0.26069945
-0.11173066 0.058718748 0.042530011 -0.87441802 0.29970869 0.38153476
-0.11582667 0.054165747 0.035825796 -0.91251862 0.2381043 0.33259168
-0.10964973 0.053797107 0.050154574 -0.85069513 0.24171853 0.46678787
-0.10639466 0.056202795 0.054321501 -0.80648541 0.27662057 0.52255452
-0.11230742 0.054761279 0.044086553 -0.8835519 0.25867313 0.39041671
-0.094113939 0.053719491 0.07103122 -0.71064389 0.24134575 0.66086203
-0.084947467 0.050685354 0.080314972 -0.61697477 0.2108178 0.75822085
-0.12095756 0.04887123 0.021534111 -0.96491605 0.19851622 0.17184101
-0.11300761 0.050567206 0.045240019 -0.88776541 0.21523049 0.40687782
-0.10648089 0.052391261 0.055980731 -0.81105316 0.22993369 0.53788871
-0.11734704 0.049733222 0.034668315 -0.92333984 0.21244361 0.31986287
-0.11602071 0.04724098 0.03988247 -0.91693234 0.19111682 0.35030061
-0.099527039 0.051600151 0.065574408 -0.75796318 0.21948768 0.61426193
-0.10393345 0.048870463 0.060938269 -0.7873888 0.19297762 0.58547366
-0.12068746 0.045472231 0.025947213 -0.95983672 0.16007538 0.23041342
-0.11272972 0.04631285 0.047613699 -0.88470864 0.1597383 0.43792152
-0.1103598 0.04818831 0.051468514 -0.85014057 0.19225949 0.49020222
-0.10757192 0.048539013 0.055781823 -0.81910628 0.1866962 0.54241145
-0.11864219 0.044890895 0.033601984 -0.93863463 0.18230854 0.29279611
-0.096423827 0.047314327 0.070561193 -0.71424985 0.19633776 0.67178833
-0.094124109 0.044627964 0.073691614 -0.67866588 0.15899996 0.71703047
-0.10437001 0.042873081 0.062014639 -0.79361987 0.18085244 0.58091366
-0.11559033 0.043319181 0.042677619 -0.89902651 0.17706898 0.40049854
-0.1179988 0.041834489 0.036649361 -0.91360474 0.22612703 0.33792609
-0.099928431 0.046568524 0.066793941 -0.76149261 0.17540342 0.62398994
-0.11097822 0.044072181 0.051709037 -0.8641386 0.15846397 0.47765523
-0.12254813 0.041648872 0.01910913 -0.95492196 0.25383449 0.15392558
-0.11299171 0.040287331 0.049174342 -0.85441482 0.26699117 0.44574875
-0.10606194 0.040798467 0.060077138 -0.79255837 0.25996074 0.55160916
-0.1073248 0.043912258 0.057624757 -0.81865293 0.16484456 0.55012226
-0.097786121 0.040580254 0.070773989 -0.71758837 0.22023009 0.66073191
-0.11656857 0.037511278 0.043806963 -0.87714678 0.29838732 0.37627068
-0.10932372 0.039535418 0.056027491 -0.81789374 0.27336231 0.50628436
-0.10181619 0.042608406 0.065317139 -0.76136762 0.20506753 0.61503464
-0.10380641 0.038330302 0.064653479 -0.76341206 0.29078409 0.57675606
-0.10099709 0.0366817 0.068849497 -0.72112775 0.29033962 0.62902999
-0.1168534 0.040684331 0.040413201 -0.89747804 0.27456921 0.34517533
-0.097439818 0.033608723 0.074284039 -0.68139911 0.3008016 0.66724408
-0.12079544 0.038308915 0.031771578 -0.9207893 0.28419885 0.26716882
-0.10864794 0.03346318 0.060748477 -0.77871227 0.3119221 0.54434603
-0.12124245 0.033705138 0.035629254 -0.8949374 0.31300017 0.31799215
-0.11481688 0.032778081 0.051202375 -0.83044767 0.31386489 0.46026769
-0.11741334 0.032465741 0.046157662 -0.86051744 0.31432009 0.40089107
-0.10405121 0.031633392 0.067905106 -0.73380524 0.30933386 0.60484982
-0.099740088 0.0306789 0.073025472 -0.69376653 0.31108811 0.64954847
-0.12038663 0.030347887 0.040951431 -0.87856853 0.3173781 0.35691679
-0.10516252 0.02777048 0.068272553 -0.73663098 0.2940906 0.60900438
-0.11216542 0.031886972 0.056277983 -0.80980951 0.30752876 0.49963534
-0.097642668 0.02568786 0.077507779 -0.67344308 0.30825225 0.67190474
-0.11946921 0.026495587 0.046270471 -0.86324245 0.31206399 0.39677352
-0.11658959 0.027570574 0.051348448 -0.84618723 0.30260819 0.43863007
-0.12272783 0.028046092 0.036859039 -0.89987403 0.31445038 0.30223948
-0.11249946 0.025177818 0.059723958 -0.79425287 0.30934104 0.52294493
-0.12195442 0.025122024 0.041731142 -0.88161618 0.31689915 0.34975544
-0.10816348 0.026043758 0.065566987 -0.76111811 0.30390614 0.57301068
-0.11872256 0.02309813 0.05038555 -0.84378487 0.31831428 0.43209267
-0.12463293 0.022339154 0.037155773 -0.89659357 0.31244552 0.31384519
-0.12302508 0.019917224 0.043751325 -0.87407809 0.32263818 0.36317077
-0.11494588 0.026021263 0.055172227 -0.82187313 0.30829456 0.47904062
-0.10482538 0.021234339 0.071990445 -0.7233063 0.31323183 0.61539799
-0.10916565 0.021701615 0.066495009 -0.75743145 0.31837127 0.57003355
-0.12572074 0.016442813 0.040292539 -0.88573349 0.34690475 0.30843854
-0.11312328 0.017922664 0.063174792 -0.78362459 0.3182911 0.5335018
-0.12100569 0.018110303 0.049690247 -0.85020411 0.32237303 0.41620824
-0.10651053 0.017804803 0.071994878 -0.71968734 0.32047969 0.61590892
-0.12778169 0.018391164 0.031700343 -0.91504294 0.3229076 0.24171928
-0.11689262 0.019383807 0.056386556 -0.81650561 0.32108685 0.47981521
-0.10065915 0.018290704 0.078073852 -0.68225068 0.31207696 0.66116798
-0.12754445 0.016209794 0.034890424 -0.89890563 0.33098492 0.2870864
-0.115735 0.015173526 0.060942471 -0.79749233 0.3160457 0.51392806
-0.10023987 0.011136871 0.081818759 -0.65575862 0.32720724 0.68038011
-0.1283883 0.011689255 0.037604056 -0.89533341 0.33315381 0.29561403
-0.1301136 0.013791777 0.029056497 -0.91503435 0.33329543 0.22721621
-0.12587902 0.013946574 0.042218454 -0.87231213 0.32237172 0.36762613
-0.11081981 0.015360137 0.067827061 -0.76065946 0.31661892 0.56670153
-0.12397534 0.012051002 0.048180308 -0.85569715 0.32909 0.39935324
-0.10432706 0.015178058 0.075531952 -0.68985605 0.32193312 0.64842796
-0.13278086 0.010136039 0.022482609 -0.93605822 0.32045177 0.14528127
-0.1077237 0.012638886 0.073142007 -0.72065073 0.32475752 0.61253238
-0.12039094 0.013016064 0.054558035 -0.82661504 0.32169342 0.46175954
-0.1058485 0.0095415693 0.077002078 -0.69419074 0.33553407 0.63680232
-0.096769251 0.007821531 0.086711451 -0.6245873 0.33196402 0.70688856
-0.13592556 0.0012681368 -0.011668446 -0.94117725 0.30986965 -0.13478589
-0.11648908 0.010196993 0.062862217 -0.78216064 0.33154532 0.52754468
-0.12735033 0.0072177337 0.045033857 -0.86490488 0.3380121 0.37106368
-0.12384488 0.007435882 0.052086599 -0.83721995 0.33556175 0.43181241
-0.13031906 0.0063878926 0.037750285 -0.89710349 0.33141652 0.29218048
-0.12785867 0.0095678354 0.041343112 -0.87737238 0.33603624 0.34248865
-0.11069146 0.0095700789 0.071249567 -0.74356127 0.32718548 0.58315283
-0.13749705 -0.0028257491 -0.0096993297 -0.93882608 0.32300305 -0.11948124
-0.11606333 0.0058363928 0.066328488 -0.77370274 0.32946515 0.54114479
-0.11277138 0.0068168235 0.070172496 -0.74374461 0.33847225 0.57643855
-0.10879435 0.0044542123 0.076256767 -0.71733993 0.32490981 0.61632615
-0.12003654 0.0072953389 0.059171457 -0.81010616 0.33358884 0.48212799
-0.10547883 0.0052810279 0.079509147 -0.67745173 0.32522321 0.65976518
-0.1608033 0.0024386619 -0.010565815 -0.99063694 -0.089402243 -0.10318264
-0.13765018 -0.0016814152 -0.0055054799 -0.94198853 0.32552063 -0.081822619
-0.12931712 0.0032742741 0.043722194 -0.88076311 0.33029506 0.33935612
-0.1393887 -0.0055272337 0.0037812453 -0.94137323 0.33693326 -0.017133933
-0.12097836 0.0022119104 0.061087824 -0.8074277 0.33212975 0.48759753
-0.14514014 -0.02077396 0.044746593 -0.2840814 0.91766495 0.27783063
-0.12928393 0.00096960785 0.045878071 -0.86926937 0.33807614 0.36066079
-0.1269317 0.0028044805 0.049769722 -0.85152882 0.33703071 0.40163383
-0.13932657 -0.0056753126 -0.00094131881 -0.94288671 0.32970038 -0.047574326
-0.13165224 -0.0022558272 0.043074314 -0.8891238 0.32460862 0.32262874
-0.10557439 -0.00018448573 0.082058147 -0.67539823 0.32505858 0.66194803
-0.13246617 -0.00021985985 0.038730554 -0.8950792 0.32883528 0.30116716
-0.11291599 0.00054503052 0.073506124 -0.73823589 0.32869869 0.58903813
-0.14100908 -0.0096596964 0.003955109 -0.95173752 0.30661505 0.013552804
-0.12473237 0.0015901456 0.054952826 -0.8269546 0.33631635 0.45059767
-0.12047021 -0.0017346487 0.06450697 -0.79274011 0.32873508 0.51332003
-0.11786335 0.0014610558 0.066353984 -0.77459043 0.33318034 0.5375886
-0.13982062 -0.0064833472 0.0083518596 -0.94324952 0.33040205 0.033405386
-0.10517504 -0.0039599384 0.084271148 -0.67625284 0.32708913 0.66007262
-0.13387352 -0.00089327007 0.034769509 -0.91285098 0.32535222 0.2466782
-0.12895107 -0.002439376 0.049860429 -0.85087049 0.33665517 0.40334058
-0.12679681 -0.0041361661 0.05546239 -0.83017313 0.33006367 0.44930109
-0.1173714 -0.0038363116 0.070260406 -0.75990236 0.33251444 0.55855471
-0.10853944 -0.0013685541 0.079533987 -0.69404131 0.33038291 0.63965213
-0.14168254 -0.012107958 0.0090348693 -0.93999314 0.34006134 0.027789647
-0.14130436 -0.011922269 0.013829413 -0.9344393 0.35079563 0.06137405
-0.14030413 -0.0093698725 0.016720006 -0.93646508 0.33218086 0.11265028
-0.12416124 -0.0035328933 0.059582062 -0.81492209 0.32625443 0.4790208
-0.10155957 -0.006405897 0.089178361 -0.63722873 0.33073568 0.69609946
-0.1293426 -0.0060036317 0.051972967 -0.85428488 0.32522836 0.40549311
-0.11244025 -0.0035309307 0.076307945 -0.72001624 0.33713335 0.60656303
-0.13539115 -0.0065617096 0.036635146 -0.90860444 0.32331026 0.26440409
-0.13118672 -0.0041071977 0.046132438 -0.87901431 0.32619292 0.34775451
-0.12077158 -0.0098883593 0.069085948 -0.75985444 0.34524676 0.55084193
-0.11549836 -0.0073014358 0.074771583 -0.74076897 0.32724285 0.58666372
-0.1107888 -0.0085894233 0.080920756 -0.69437516 0.33864555 0.63495147
-0.13542219 -0.0092276232 0.039466351 -0.89595002 0.33896905 0.28700989
-0.13351889 -0.0093827192 0.045125175 -0.87247092 0.34583366 0.34524548
-0.14076784 -0.011980718 0.020125233 -0.91875321 0.37432814 0.12558691
-0.12208205 -0.0070346631 0.065416172 -0.79609609 0.33770755 0.50218076
-0.13801654 -0.011472882 0.033383973 -0.90307647 0.35894412 0.23582409
-0.14063755 -0.015374779 0.028944042 -0.83798182 0.51952463 0.16697764
-0.11332282 -0.012245554 0.080156468 -0.71955132 0.32835665 0.61190587
-0.10909093 -0.012377599 0.084575824 -0.66394192 0.36874211 0.65054709
-0.12670073 -0.0081098806 0.05830181 -0.82127863 0.33765915 0.45987877
-0.14303096 -0.016330119 0.017633984 -0.77557737 0.62497896 0.088779971
-0.13159326 -0.010615365 0.051070802 -0.85191149 0.3328408 0.40430766
-0.14154848 -0.014798094 0.022096857 -0.87331533 0.46466511 0.14631285
-0.11811048 -0.012150598 0.073875971 -0.74550223 0.33058617 0.57874006
-0.14032722 -0.016993117 0.034623701 -0.75253999 0.62226236 0.21557826
-0.13406608 -0.01434733 0.04843488 -0.82810402 0.43459392 0.35408002
-0.13035651 -0.013963597 0.056186121 -0.80982447 0.41924793 0.41038558
-0.05650799 0.11763199 0.049026717 -0.3470529 0.81367427 0.46635753
-0.15436846 -0.0081987912 -0.040152688 -0.94009769 0.035747569 -0.33902726
-0.013263849 0.11215509 0.065767221 0.069140397 0.77049613 0.63368475
-0.015979992 0.10247271 0.075884625 0.16860653 0.68060172 0.71298963
-0.035097748 0.11071715 0.066996314 -0.057580251 0.73365718 0.67707652
-0.032309666 0.10990914 0.06757883 -0.10503254 0.7159372 0.69021952
-0.0175985 0.10676178 0.072176181 0.13366051 0.67135155 0.72898757
-0.093850613 0.097097658 -0.026078187 -0.71479332 0.6279155 -0.30788568
-0.10380316 0.080650181 -0.030188242 -0.80029976 0.49523789 -0.33802459
-0.074956685 0.11406252 -0.027447311 -0.51132208 0.79489934 -0.32662782
-0.098720275 0.095117837 -0.019233132 -0.75093311 0.61222309 -0.24755447
0.0098973922 0.076848589 0.086510807 0.33155304 0.45328468 0.82740945
-0.076249547 0.11674241 -0.01701274 -0.53782761 0.81617194 -0.21120052
-0.073290035 0.11799461 -0.018953837 -0.48070139 0.8544541 -0.19706622
-0.078796513 0.11754701 -0.0036165898 -0.54546469 0.83467716 -0.076046638
0.014633453 0.1261856 0.034864813 -0.62377203 -0.17053343 0.76277637
-0.070137776 0.12634128 0.023518458 0.34910205 -0.15388064 0.92436439
-0.098500602 -0.0093416888 0.093104206 -0.59847867 0.34391543 0.72356504
-0.053059138 -0.0055169999 0.11522979 -0.2429367 0.32779416 0.91298074
-0.10251615 -0.010338154 0.089982368 -0.64422458 0.35227144 0.67888194
-0.047190547 -0.011753098 0.11874178 -0.19321191 0.29860768 0.93461418
-0.073331043 -0.012217523 0.11038706 -0.40726811 0.35102943 0.84315592
-0.0642597 -0.0087204361 0.11271797 -0.3404572 0.32784548 0.88125324
-0.054526031 -0.011789222 0.11698581 -0.2616275 0.32131466 0.91011482
-0.095888451 -0.0099065946 0.09541624 -0.55750608 0.35632497 0.74981362
0.097992755 -0.015672289 0.059364367 -0.50818944 0.83283746 -0.21937653
0.096684895 -0.014764929 0.0648316 -0.58195555 0.77670622 -0.24094823
0.095560193 -0.016049389 0.063806467 -0.53067404 0.81634188 -0.2279734
0.09151049 -0.017455693 0.06537421 -0.12120197 0.99248689 -0.016757274
0.095290653 -0.014692344 0.068695918 -0.58334672 0.77378231 -0.24691795
0.093261831 -0.015625944 0.070220418 -0.55385315 0.79391837 -0.25088075
-0.14413987 -0.01679334 -0.0065888185 -0.68521464 0.72592545 -0.059280578
-0.14541528 -0.017593829 0.00019769937 -0.63892394 0.76923174 -0.0077270763
0.024602303 0.1255395 -0.014918143 0.29949847 -0.084380917 0.95035863
-0.064637542 0.12631866 -0.02710885 -0.60499132 0.021420352 0.79594445
-0.061171003 0.12571779 -0.024496691 -0.59434754 0.058093004 0.80210787
-0.063480966 0.12213285 -0.02594869 -0.74672377 0.49836686 0.44049409
0.017696774 0.12604228 0.037022054 -0.57594419 -0.10245001 0.81104451
0.015806684 0.12249736 0.034683868 -0.53920555 0.22422116 0.81177777
0.011101078 0.12197126 0.038551986 0.34536943 0.84874773 0.40043494
0.0020331682 0.12339484 0.043264862 0.25841612 0.86667258 0.42673242
0.0079606771 0.12197594 0.041453484 0.3170951 0.85921997 0.4014881
-0.0017265902 0.12367662 0.044237323 0.11492444 0.90982103 0.39877194
0.0025035217 0.12212738 0.045478877 0.26897129 0.85822922 0.43714735
0.0064388635 0.1225285 0.040754192 0.30329454 0.86798573 0.39320984
0.010916358 0.12058621 0.042114757 0.34763074 0.85996562 0.37364808
-0.069808595 0.1230804 0.0064048828 -0.42587107 0.90203828 0.070440233
-0.0057546427 0.12298002 0.046455707 0.17158206 0.93206501 0.31908548
-0.072523832 0.1217882 0.0065366235 -0.4530775 0.8862223 0.096601538
-0.066341013 0.1254635 0.021938421 0.30157554 -0.046531096 0.95230663
-0.064535633 0.1242288 0.021399256 -0.022819228 0.69160932 0.72191191
-0.0031759343 0.12254518 0.047236461 0.18534869 0.87212908 0.45281067
-0.071964256 0.12122857 0.0096704997 -0.5093568 0.85924697 0.047445063
-0.10112537 -0.012135796 0.092023306 -0.5896576 0.36295357 0.72150505
-0.069285952 0.12318049 0.022670569 0.32990745 -0.013078052 0.94392323
-0.0083266599 0.12217967 0.050159767 0.14915107 0.85183835 0.50212169
0.009342107 0.11849426 0.047793645 0.33997834 0.81955874 0.46123651
-0.063451223 0.12370308 0.023716286 -0.21642339 0.95580226 0.19900762
-0.010637818 0.12344037 0.048325706 0.078744397 0.94285083 0.32377869
-0.0080293026 0.12311494 0.048529107 0.176672 0.90083671 0.39658704
-0.0020786074 0.12163369 0.048905082 0.15614887 0.85891199 0.48773822
-0.074884638 0.12048611 0.0069426955 -0.52159208 0.85031176 0.070088603
-0.015989264 0.12282085 0.050528947 0.035534948 0.90254104 0.42913628
-0.013433164 0.12234917 0.051309321 0.093164302 0.87137032 0.48170009
-0.074104756 0.11991668 0.009903403 -0.52760041 0.84751111 0.057995588
-0.0043962402 0.1202237 0.05104024 0.20821683 0.81224787 0.54488534
0.010336366 0.11709476 0.049525034 0.35810012 0.80805242 0.46777827
-0.076509774 0.1183395 0.0099896677 -0.48436904 0.87129104 0.078989774
-0.067773819 0.12297869 0.022494525 -0.31741989 0.86456347 0.38958392
-0.063092768 0.12291124 0.029296378 -0.33217186 0.89838386 0.28734896
-0.036818743 0.12353584 0.04768464 -0.081075922 0.96429253 0.2521261
-0.032134596 0.12385321 0.046287384 -0.37991601 0.90444195 0.19403516
-0.0035595852 0.11860157 0.053491559 0.18579108 0.8699283 0.45684496
-0.075572073 0.11945638 0.013598806 -0.53460294 0.84334213 0.054539885
-0.070876472 0.12119161 0.023513019 -0.089041732 0.62775743 0.77330017
-0.016012298 0.12118616 0.053511687 0.062328257 0.86198992 0.50307995
-0.014001121 0.12067066 0.054350529 0.099568434 0.85608244 0.5071587
-0.049573377 0.1231442 0.042057097 -0.2286531 0.91641766 0.32847744
0.0012747578 0.11889831 0.052131958 0.18033244 0.85254186 0.49056441
0.0022306768 0.11677967 0.054919314 0.26174319 0.79918325 0.54110771
-0.078752398 0.11753386 0.010339372 -0.48622108 0.87299681 0.038296431
-0.084238216 -0.0099074477 0.10339036 -0.488785 0.33636352 0.80495322
-0.073024981 0.12242638 0.024684811 0.43600181 -0.091019377 0.89533174
-0.074223608 0.11902395 0.024652516 -0.56916046 0.72906345 0.38016281
-0.064667836 0.12092114 0.03232057 -0.37025923 0.86902332 0.32818815
-0.049515888 0.12206424 0.045110103 -0.25775093 0.87158382 0.41702151
-0.034348242 0.12161697 0.052414317 -0.21083187 0.83746296 0.50418895
-0.028197557 0.12007589 0.056143273 0.043802526 0.80982679 0.58503228
-0.023983719 0.1220894 0.052809622 0.026218312 0.83057058 0.55629671
-0.024710782 0.12032147 0.055483468 0.025676707 0.84052402 0.54116625
-0.038960855 0.12049701 0.052852567 -0.20301554 0.8429836 0.49816081
-0.02132206 0.12003966 0.055873323 0.014820693 0.84127247 0.54040909
-0.0096350787 0.11934583 0.055366147 0.13180305 0.83894968 0.52800775
-0.0039297151 0.11692776 0.057381466 0.19160362 0.83019775 0.52350807
-0.032798819 0.12006988 0.055825878 -0.20773861 0.82076025 0.53216362
-0.060739603 0.12068127 0.038635723 -0.38372535 0.85275555 0.35434964
-0.015071105 0.11857922 0.057561424 0.089105144 0.83240205 0.5469625
-0.065797374 0.11835858 0.038596682 -0.42036518 0.84887218 0.32048419
-0.061280489 0.11897931 0.042072032 -0.40216625 0.82999521 0.38648555
-0.05368536 0.11885913 0.048861217 -0.31412899 0.84365284 0.43540066
-0.032093666 0.11846275 0.058113556 -0.36707458 0.74862325 0.55210549
-0.024955601 0.11896034 0.057715703 0.0013941808 0.83214408 0.55455858
-0.019451354 0.11876417 0.05775588 0.035511505 0.85760057 0.5130896
-0.010447466 0.11701982 0.059133671 0.1402766 0.8109442 0.56806058
-0.0031202033 0.11497265 0.059770882 0.21090028 0.78352267 0.58447778
-0.046850163 0.12033627 0.049825367 -0.20244184 0.85856122 0.47105289
-0.020781163 0.11776414 0.059617966 0.021600744 0.813887 0.58062226
-0.02529325 0.11709579 0.060284369 -0.040069483 0.79992175 0.59876573
-0.01336699 0.11599235 0.061040286 0.096667327 0.78361136 0.61368519
-0.029710755 0.11834623 0.058400676 0.16566958 0.77734596 0.60686713
-0.040831652 0.11847436 0.055590421 -0.19342247 0.83960491 0.50759459
-0.0082062529 0.11389603 0.06274204 0.16015689 0.76905805 0.61878949
-0.062702842 0.11723342 0.044094954 -0.41395557 0.80831373 0.41865334
-0.037111219 0.11734062 0.058266319 -0.1695271 0.79858452 0.57751554
-0.030598637 0.11601072 0.06121568 -0.072073169 0.76921475 0.63491356
-0.0014314618 0.11312139 0.061422929 0.22402702 0.75513816 0.61609989
-0.0013226098 0.11117822 0.063679263 0.25203469 0.73841822 0.62547421
0.0024344469 0.11212486 0.06119715 0.25556412 0.73816127 0.62434429
-0.046451725 0.11838413 0.053598247 -0.2079514 0.84734285 0.48863813
-0.035987347 0.11481303 0.061858516 -0.12068476 0.77314132 0.62264645
-0.089433022 0.10795262 0.011598831 -0.73365444 0.67656261 0.063366227
-0.014888675 0.1138514 0.063900255 0.068860091 0.76201552 0.64388794
-0.0059900279 0.11027096 0.066465177 0.1794529 0.74539709 0.64201313
-0.0010952197 0.10904689 0.066428803 0.2853623 0.73571002 0.61424756
0.00045832497 0.11001539 0.063487574 0.26830199 0.69967669 0.6621688
-0.089704365 0.10882272 0.0093141403 -0.66992301 0.73277014 0.11938182
-0.057752766 0.11428732 0.053262338 -0.38499546 0.76555037 0.51547259
-0.051398337 0.11646949 0.054032531 -0.30066562 0.7931118 0.52969307
-0.043811429 0.11536361 0.058935631 -0.20398857 0.77734977 0.5950771
0.003528855 0.1091797 0.064270131 0.21810327 0.72885567 0.64900029
-0.056356069 0.11236565 0.057063907 -0.32782713 0.76446623 0.55508709
-0.016183348 0.11213944 0.06562712 0.065093838 0.762797 0.64335412
-0.021357676 0.11177654 0.067040354 0.028643603 0.75862253 0.6509012
-0.011291568 0.10981494 0.06822627 0.098518506 0.71621811 0.6908884
0.0012895637 0.10807735 0.065496586 0.2552357 0.74197179 0.61994624
0.0041646478 0.10628523 0.067179881 0.21268284 0.70901495 0.67235774
-0.091037005 0.10627084 0.01171567 -0.66525185 0.73581541 0.12655644
-0.063363984 0.11354454 0.050038997 -0.41744068 0.75520676 0.50537801
-0.046658538 0.11180985 0.06216063 -0.23281936 0.75013191 0.61894929
-0.041375834 0.11303383 0.062799208 -0.19427887 0.76844907 0.60970694
0.009285544 0.10643038 0.064711377 0.33859149 0.70665133 0.62128955
-0.10447895 -0.012605885 0.089860395 -0.60372514 0.48866755 0.6298579
-0.09366852 0.10466378 0.01069665 -0.71500611 0.68627 0.13342004
-0.049060997 0.11397211 0.058733433 -0.2616539 0.77329344 0.5775426
0.0023272117 0.10520755 0.068687379 0.30888566 0.7158249 0.62624699
0.0061359373 0.10377606 0.069027305 0.27586442 0.67339742 0.68588328
-0.066611841 0.1143382 0.045693293 -0.44631901 0.77775395 0.44260478
-0.050779678 0.11155123 0.061218273 -0.27735969 0.73723036 0.6160875
-0.014550081 0.1076761 0.070403382 0.099467732 0.69991761 0.70726407
-0.096091263 0.10092208 0.012443782 -0.76558346 0.62951505 0.13264155
-0.037783425 0.11204085 0.06497369 -0.13767344 0.75844175 0.63703477
-0.055783618 0.10947429 0.061028522 -0.33139679 0.72586018 0.6027472
-0.042897031 0.1088528 0.067214198 -0.21588778 0.73057544 0.64780635
-0.069972619 0.10941193 0.050447542 -0.47508758 0.73422873 0.48497522
0.0068698735 0.10176255 0.07063061 0.25854659 0.65505165 0.70997322
-0.064830512 0.11129411 0.052266717 -0.36768064 0.74218553 0.56033242
-0.045996312 0.11002874 0.064766236 -0.25655866 0.7345407 0.62819475
-0.098311692 0.099962428 0.0091999583 -0.76297635 0.64324206 0.064092807
-0.086042143 0.10601522 0.033190053 -0.64627486 0.71537387 0.26564983
-0.030595075 0.10674584 0.071915351 -0.17078251 0.69548738 0.69794816
-0.060884152 0.11034758 0.056800619 -0.43691108 0.74020785 0.51107919
-0.099274985 0.098351315 0.011024536 -0.72588855 0.64654249 0.23466922
-0.025490802 0.10780226 0.071295172 -0.02597994 0.70976543 0.70395952
0.0039694579 0.1019403 0.071061507 0.30957568 0.62453526 0.71702129
-0.097717188 0.098817334 0.012960532 -0.7719295 0.62493473 0.11654317
-0.066052623 0.10856222 0.055036452 -0.41460949 0.72838759 0.54548281
-0.049901925 0.1089533 0.06419903 -0.26066563 0.72399646 0.63865763
-0.049569935 0.10704022 0.066441253 -0.28004113 0.70149946 0.65534461
-0.062509455 0.10755454 0.059233163 -0.41057551 0.70760977 0.5750801
0.0040801098 0.099866368 0.072514728 0.35605657 0.59932864 0.7169587
-0.042948563 0.10532397 0.070936196 -0.19240466 0.68788821 0.69985098
0.0044210646 0.09844923 0.073722295 0.2466601 0.64527237 0.72303766
-0.074530736 0.10396092 0.053372841 -0.52338719 0.66652447 0.53085965
-0.054513603 0.1066364 0.065208711 -0.30511343 0.70452207 0.640746
0.0075458954 0.098673567 0.073280975 0.26263863 0.60556871 0.75120461
0.0055416408 0.095876329 0.075604551 0.25872114 0.59340423 0.76219136
-0.040183764 0.10255774 0.07436382 -0.18025108 0.66129154 0.72815114
-0.094471343 0.098567836 0.030209361 -0.7190634 0.64198565 0.2660889
-0.0597235 0.10434932 0.064615041 -0.37491667 0.68662405 0.62288499
-0.065536946 0.10307783 0.062199455 -0.48897532 0.67665821 0.55048859
-0.049173683 0.10357744 0.070503853 -0.40173975 0.62961507 0.66497445
-0.061913308 0.10268118 0.065309562 -0.39206022 0.6552422 0.64571476
-0.046705466 0.10228508 0.072430596 -0.24471991 0.65231746 0.71735293
0.0087853642 0.091957577 0.077801377 0.31098717 0.58474135 0.7492432
-0.0084127337 0.096223049 0.080054946 0.11352091 0.59288549 0.79724568
-0.06698285 0.10061691 0.063825779 -0.51784021 0.62780619 0.58112115
-0.0315421 0.10033697 0.077539615 -0.17775278 0.63506782 0.75172728
-0.032157015 0.097603492 0.079541348 -0.13980895 0.59491515 0.79153663
-0.099939808 0.094582371 0.023440441 -0.77944231 0.59311569 0.20170368
-0.049517807 0.099839233 0.073840268 -0.31256768 0.64913374 0.69348973
-0.043450262 0.099853262 0.075780369 -0.20267974 0.64340061 0.73821247
-0.077080503 0.099632196 0.056136202 -0.55019319 0.62928993 0.54889214
-0.054111954 0.10265423 0.069404349 -0.31084418 0.64851105 0.69484544
-0.013078736 0.092998885 0.082707055 0.086277261 0.58658057 0.80528277
0.011128341 0.088887125 0.079082035 0.36271337 0.52919114 0.76707017
-0.036643021 0.099436969 0.077729851 -0.090938628 0.61521113 0.78310049
-0.033046477 0.093971804 0.081897348 -0.13344777 0.59071583 0.79576832
-0.064800598 0.097386003 0.068428732 -0.40857497 0.61552811 0.6739381
-0.068960816 0.097316742 0.065457165 -0.56949592 0.60180622 0.55991471
-0.045620345 0.097401172 0.07734298 -0.25864574 0.59201092 0.76329964
-0.097800098 -0.012666197 0.09586481 -0.50158972 0.46594739 0.72890449
-0.059420988 0.097653516 0.071098588 -0.36318839 0.63071972 0.68577546
-0.042294368 0.095789485 0.079422571 -0.16342771 0.578457 0.79917443
-0.077203132 0.096364215 0.05959617 -0.54806203 0.58248317 0.60028511
-0.061120097 0.094992384 0.072771825 -0.39070079 0.57162327 0.72152668
-0.053717971 0.093929306 0.076471232 -0.34981859 0.53738308 0.76736385
-0.049466819 0.094465926 0.077918597 -0.3060579 0.57030636 0.76228607
0.012283654 0.083639234 0.081980288 0.34133747 0.48810521 0.80327016
-0.080076888 0.091267511 0.061582159 -0.54131573 0.56707484 0.62080926
-0.04752019 0.092517927 0.080160327 -0.2526482 0.58026785 0.77424729
-0.069491968 0.093031198 0.069233038 -0.48936087 0.54717958 0.67905927
-0.031656627 0.091011427 0.084386714 -0.1351248 0.57326859 0.80814922
-0.013134386 0.087773949 0.086289994 0.092854269 0.54505944 0.83324009
-0.05174673 0.091733649 0.079354778 -0.35234419 0.56518751 0.74593395
-0.043241672 0.091696419 0.082070298 -0.16310002 0.56552637 0.80844241
-0.063064821 0.089174196 0.07590241 -0.41204733 0.53452003 0.73790669
-0.038589057 0.08882039 0.084801182 -0.11822366 0.54262751 0.83161259
0.0096465135 0.079634547 0.084908687 0.30368039 0.47296569 0.82709277
-0.011501462 0.084314622 0.088458516 0.052112959 0.51420766 0.85608155
-0.077454105 0.088312991 0.066592515 -0.53817004 0.52462471 0.6596536
-0.071199946 0.087809578 0.071793847 -0.50649995 0.5333907 0.67746073
-0.040062174 0.086824343 0.085855797 -0.13396811 0.53187901 0.83615679
-0.053411175 0.087414689 0.081290007 -0.36313555 0.52030146 0.77292937
-0.04867585 0.08938048 0.082296908 -0.27153465 0.53308153 0.80130768
-0.05184843 0.08426173 0.084195696 -0.33702481 0.47844705 0.81086594
-0.010853984 0.080984876 0.090229057 0.1053251 0.46534288 0.87884223
-0.066541269 0.08616925 0.076321408 -0.39897057 0.54666221 0.73619556
-0.0453327 0.084552482 0.086261883 -0.22137871 0.50090146 0.83671379
0.010462962 0.07425043 0.087478116 0.341939 0.43724522 0.83180231
0.013487065 0.074054442 0.086833365 0.33207336 0.41390771 0.84758991
-0.07000313 0.083663508 0.07590346 -0.51710194 0.48357621 0.70622987
-0.063824885 0.083579466 0.079560742 -0.3809298 0.49559024 0.78056633
-0.017441874 0.077114023 0.092962883 0.10528006 0.42433909 0.8993628
-0.012785473 0.074919142 0.093239851 0.10665905 0.42208996 0.9002583
-0.011067351 0.076902181 0.092359811 0.085164741 0.42798531 0.89976478
-0.062627085 0.080776058 0.081691474 -0.38743246 0.43686906 0.81181425
-0.082921803 0.079482734 0.068448029 -0.59482181 0.44591671 0.66883957
-0.069606066 0.080877863 0.077833802 -0.48638573 0.44914243 0.74946707
-0.054220196 0.077420354 0.086994529 -0.35445651 0.43893489 0.82564986
-0.071986809 0.078286551 0.077692002 -0.5053792 0.41556811 0.75623804
-0.048099708 0.079519063 0.088200539 -0.27701369 0.44312838 0.8525852
-0.046790309 0.073130593 0.091719054 -0.26651636 0.39658189 0.87846053
-0.074652433 0.07733883 0.076294795 -0.54797298 0.4407343 0.71097106
-0.090519965 0.071678944 0.066266082 -0.66528112 0.38770968 0.63803083
-0.067126498 0.077297628 0.081346877 -0.44072834 0.42875659 0.78862363
-0.050805882 0.075292721 0.089295775 -0.30415961 0.407307 0.86115551
-0.064834774 0.075070448 0.083698638 -0.40097877 0.40636456 0.82102662
-0.072422512 0.074812904 0.079284452 -0.5182423 0.41116473 0.74991298
-0.017885569 0.067624889 0.097141631 0.070944451 0.35125703 0.93358791
-0.076692447 0.068601333 0.079657532 -0.54566497 0.3626529 0.75546908
-0.051044177 0.070636027 0.091290958 -0.29348996 0.3712211 0.88094246
-0.061318666 0.074168898 0.085692436 -0.34200928 0.40580544 0.84755683
-0.055119809 0.071753442 0.089466907 -0.33515695 0.38463506 0.86007357
-0.070318505 0.072397798 0.082020484 -0.46626621 0.38603756 0.79597223
-0.044952512 0.068751596 0.094033137 -0.23525476 0.35896397 0.90321714
-0.072656982 0.068144038 0.082526371 -0.50461149 0.34678912 0.79063612
-0.051510077 0.066092975 0.093031988 -0.28804949 0.34957623 0.89152962
-0.070497818 -0.0095768338 0.11051752 -0.37806526 0.3511028 0.85661799
-0.064586937 0.068314292 0.086881146 -0.40747732 0.36759859 0.83596313
-0.069205046 0.065808199 0.085661381 -0.46215749 0.34363875 0.81751066
-0.090944491 0.066436984 0.06871061 -0.67247921 0.34618017 0.65416509
-0.086965628 0.067145914 0.07211493 -0.62801951 0.35082647 0.69463181
-0.068008363 0.062054388 0.087740943 -0.43515989 0.30378485 0.84755623
-0.055770628 0.065771833 0.091661423 -0.35599142 0.33784181 0.87128288
-0.083354622 0.06370008 0.07674364 -0.5936203 0.31773362 0.73936534
-0.050308503 0.060557891 0.095511906 -0.30202907 0.30633345 0.90273982
-0.067082703 -0.012133844 0.11280782 -0.35247079 0.32234928 0.87855357
-0.057915851 0.060073122 0.09279979 -0.35898897 0.30553615 0.88191587
-0.088951021 0.061253089 0.073104471 -0.63374448 0.3092151 0.70905215
-0.075291187 0.061235275 0.083742857 -0.51949137 0.30738422 0.79727328
-0.040925454 0.059838824 0.097928658 -0.15831372 0.29957727 0.94084597
-0.067926943 0.056440447 0.089641564 -0.42579284 0.26818764 0.86416239
-0.05394968 0.057280004 0.09531676 -0.32996914 0.26564291 0.90584505
-0.079389401 0.056215882 0.082646802 -0.56001765 0.26394546 0.78531128
-0.085853428 0.057237133 0.077318534 -0.61331266 0.282518 0.73758525
-0.073342845 0.055958591 0.086803004 -0.49962404 0.26625156 0.82430989
-0.012003948 0.04890262 0.10208861 0.12186868 0.20058358 0.97206753
-0.091315739 0.055686332 0.073200263 -0.66856498 0.27258441 0.69189572
-0.057190873 0.053777795 0.095026314 -0.33480498 0.24351957 0.91027731
-0.090084612 0.052599449 0.075385548 -0.6612342 0.21229888 0.71951336
-0.077965721 0.053004377 0.084708259 -0.55783099 0.24269518 0.79367781
-0.040229011 0.048852857 0.10092945 -0.16798669 0.19760342 0.96578175
-0.067461602 0.052618392 0.090955965 -0.41625127 0.22230391 0.88165581
-0.056602132 0.049565107 0.096430421 -0.35065734 0.20556664 0.91366446
-0.089603812 0.049194578 0.076636545 -0.65927774 0.19452892 0.72630054
-0.082070008 0.047499713 0.083357781 -0.58335876 0.18630549 0.79055905
-0.063686773 0.048610292 0.093617775 -0.39348224 0.20144071 0.89699185
-0.07124453 0.050664816 0.089529485 -0.46642911 0.2088443 0.85955149
-0.051598195 0.050617367 0.097770378 -0.29595834 0.22874048 0.92740893
-0.048125148 0.047001712 0.099655367 -0.24944365 0.1747549 0.95249128
-0.052636199 0.044885788 0.098700464 -0.32010454 0.15878426 0.93398154
-0.087781541 0.046171345 0.078970939 -0.64551109 0.15551934 0.74775004
-0.05969445 0.046268273 0.095697314 -0.36807349 0.15045512 0.91754353
-0.076008879 0.050247438 0.086785585 -0.52628434 0.21118043 0.82366765
-0.076207057 0.045145199 0.087825879 -0.52042794 0.15646599 0.83944869
-0.070921034 0.044266153 0.091020428 -0.46934378 0.13815869 0.87214071
-0.067278922 0.045818787 0.092628263 -0.41741917 0.16744938 0.89315337
-0.044432849 0.04619642 0.10062692 -0.1962553 0.1681487 0.96602839
-0.093208976 0.040882215 0.075068086 -0.66574895 0.23013191 0.70980185
-0.081159748 0.043718159 0.084682293 -0.57637733 0.17198072 0.79888213
-0.061262824 0.043224927 0.09560249 -0.37481749 0.18723986 0.90799457
-0.065125063 0.041564576 0.0941815 -0.41381192 0.20734783 0.88643539
-0.05102152 0.040885381 0.099707052 -0.2548857 0.24318242 0.93589354
-0.087134086 0.042373985 0.080311112 -0.63113171 0.20394447 0.74838525
-0.0840206 0.038647924 0.083946981 -0.5825094 0.27128789 0.76621574
-0.071663484 0.041116737 0.090961605 -0.46357155 0.24280822 0.85214233
-0.058020815 0.038051505 0.098315105 -0.3554751 0.27914143 0.89203054
-0.05585134 0.042048298 0.097885899 -0.3256529 0.23313014 0.91629779
-0.078184865 0.040519994 0.087301679 -0.52458566 0.24512121 0.81530756
-0.062012129 -0.012447372 0.11497506 -0.30415249 0.33384666 0.89221001
-0.064660363 0.037338741 0.095890798 -0.39784345 0.30212346 0.86628109
-0.090513341 -0.0121604 0.10040241 -0.52076435 0.36419111 0.77212071
-0.090923451 0.037534885 0.078739867 -0.63714784 0.29776818 0.71089923
0.098420493 -0.01628097 0.055055592 -0.51048881 0.84296167 -0.16975772
-0.088440739 0.034501992 0.082084551 -0.60605413 0.30690339 0.73383212
-0.075804748 0.036335532 0.090404563 -0.49292639 0.30650437 0.81429696
-0.082715064 0.032911796 0.087190382 -0.54312539 0.30620521 0.78182739
-0.053180505 0.033540122 0.10161479 -0.3014859 0.30590943 0.90306515
0.096247815 -0.016702943 0.059493799 -0.48937783 0.84572238 -0.212753
-0.082895972 -0.012204261 0.10534015 -0.46122563 0.36476576 0.80883723
-0.093855642 0.030270465 0.079328083 -0.6403482 0.3086724 0.70333248
0.092764467 -0.017354991 0.062268727 -0.18577422 0.97197407 -0.14406782
0.09392523 -0.017261824 0.060635101 -0.31751978 0.92874098 -0.19136994
0.091819726 -0.017949779 0.061642028 -0.10716266 0.99084735 -0.082088903
-0.070973434 0.034440767 0.093758047 -0.44017038 0.30866718 0.84319365
-0.060646266 0.033151884 0.098889463 -0.34956881 0.30721685 0.88511044
0.090047069 -0.01766273 0.063696586 -0.14728723 0.97547585 -0.1635675
-0.087178051 0.031030608 0.084553316 -0.59300596 0.30845866 0.74377286
-0.055224881 0.029171193 0.10247848 -0.31220755 0.30500576 0.89972156
-0.065048717 0.031506665 0.097694106 -0.39321902 0.30543691 0.86723006
-0.063601688 0.026116423 0.10020477 -0.36644134 0.30700421 0.87833369
-0.0866265 0.025063002 0.087395057 -0.57287753 0.30863106 0.75931489
-0.046215493 0.028269775 0.10525098 -0.2278726 0.30490482 0.92472059
-0.10170664 0.023455929 0.074626639 -0.70188034 0.30985165 0.64137113
-0.093531296 0.023473512 0.082627043 -0.62780935 0.31027716 0.71385187
-0.076900259 0.02961391 0.092259072 -0.48794487 0.30738074 0.81696254
-0.05597708 0.025436424 0.10336445 -0.31725195 0.29956678 0.89978439
-0.059511233 0.021024169 0.10358828 -0.3338002 0.31151408 0.8896839
-0.082112387 0.027129194 0.089887135 -0.53188753 0.30617508 0.7895273
-0.082868323 0.02034555 0.091981925 -0.53552496 0.301061 0.78903496
-0.071334034 0.027422367 0.096223302 -0.42843282 0.30754447 0.84962487
-0.051812135 0.024828227 0.10483434 -0.26661742 0.30399635 0.91460508
-0.048267439 0.022369659 0.1067652 -0.22762273 0.30361786 0.92520541
-0.078316733 0.022626383 0.0940127 -0.49349505 0.30517015 0.81445354
-0.064324602 0.018575393 0.10252856 -0.3652409 0.30934525 0.8780123
-0.097736746 0.016324345 0.081883214 -0.64487135 0.30475417 0.70090437
-0.068858966 0.02174101 0.099410944 -0.40631953 0.30710098 0.86057782
-0.14005744 -0.0085212244 -0.0053445529 -0.94382852 0.32160202 -0.075900123
