# .PCD v0.7 - Point Cloud Data file format
VERSION 0.7
FIELDS x y z normal_x normal_y normal_z
SIZE 4 4 4 4 4 4
TYPE F F F F F F
COUNT 1 1 1 1 1 1
WIDTH 662
HEIGHT 1
VIEWPOINT 0 0 0 1 0 0 0
POINTS 662
DATA ascii
-0.065870106 -0.024064701 -0.023980001 -0.91600049 0.26343113 -0.30256912
-0.063308306 -0.0223366 -0.029230103 -0.87332737 0.26757312 -0.40707019
-0.0582394 -0.025936201 -0.039624404 -0.79111838 0.26269612 -0.55237925
-0.063826807 -0.027179101 -0.030903002 -0.86570334 0.24689113 -0.43543518
-0.061460901 -0.0243046 -0.033968601 -0.83812034 0.25633711 -0.48150524
-0.067961901 -0.027895801 -0.020772303 -0.9244675 0.26748112 -0.27168813
-0.050620604 -0.025154 -0.048301902 -0.66870636 0.27045211 -0.69259536
-0.053666502 -0.027475502 -0.0459489 -0.71821934 0.26448211 -0.64359236
-0.056132901 -0.026967801 -0.042938702 -0.74821734 0.26900712 -0.60647023
-0.061125502 -0.030676203 -0.037654303 -0.82069838 0.26297012 -0.50724924
-0.060450502 -0.026921701 -0.036891103 -0.80238336 0.26661611 -0.53394425
-0.066535108 -0.028620102 -0.025777001 -0.89942747 0.25910512 -0.35198817
-0.064665705 -0.031863503 -0.032143902 -0.86158335 0.27225411 -0.42843118
-0.058413003 -0.032910902 -0.042758804 -0.76296538 0.26669711 -0.58886123
-0.054515101 -0.033626802 -0.047664203 -0.70857733 0.26819512 -0.65267938
-0.065814301 -0.035746302 -0.032170299 -0.86482137 0.26244113 -0.42803019
-0.060756203 -0.036919102 -0.041319903 -0.78735036 0.26581612 -0.55625725
-0.067481801 -0.032780301 -0.026519302 -0.89807445 0.26134112 -0.35378417
-0.063347198 -0.035007101 -0.036473304 -0.83239138 0.26472411 -0.48687324
-0.057552803 -0.037052602 -0.045583103 -0.73792535 0.26376113 -0.62120622
-0.067556396 -0.036279704 -0.028748902 -0.88648146 0.26264313 -0.38101119
-0.053115506 -0.0379683 -0.050754402 -0.67846537 0.26820713 -0.68392235
-0.069176503 -0.037242103 -0.025123201 -0.91069347 0.26409912 -0.31763217
-0.0626899 -0.038739704 -0.039391205 -0.82216936 0.25602713 -0.50841725
-0.069858909 -0.041958902 -0.027307302 -0.89445549 0.27178711 -0.35508019
-0.058498602 -0.042942204 -0.046984103 -0.74400538 0.26183912 -0.61473322
-0.061281402 -0.0424054 -0.043201804 -0.78337234 0.26524112 -0.56211722
-0.065160803 -0.042519201 -0.037298501 -0.82405138 0.27133811 -0.49730822
-0.066664204 -0.039853502 -0.033004902 -0.86017436 0.26152912 -0.43783924
-0.0679572 -0.043766703 -0.032854002 -0.86443037 0.27480811 -0.42100018
-0.071326308 -0.043548904 -0.0244177 -0.91453445 0.27343711 -0.29809412
-0.056207202 -0.042600702 -0.049426202 -0.70730436 0.26611611 -0.65490735
-0.059716903 -0.046759702 -0.047098599 -0.74109834 0.25729713 -0.62013924
-0.06988401 -0.044854302 -0.029417202 -0.89158148 0.27593413 -0.35908917
-0.050191104 -0.050484005 -0.058136202 -0.62566936 0.26778513 -0.73268735
-0.067212403 -0.046748102 -0.036223002 -0.84587634 0.26842511 -0.46091422
-0.059689205 -0.050326001 -0.048565499 -0.73481238 0.25851512 -0.62707436
-0.064617902 -0.048513405 -0.041310102 -0.80626237 0.26530311 -0.52872926
-0.057261605 -0.049847603 -0.051162403 -0.70865238 0.25704911 -0.65706837
-0.062378105 -0.047728602 -0.044195402 -0.76694733 0.26368412 -0.58503222
-0.066552699 -0.050663304 -0.039388701 -0.81987834 0.26410112 -0.50798726
-0.069929205 -0.051341705 -0.033674501 -0.86649537 0.26557013 -0.42268118
-0.070667401 -0.048356205 -0.030077301 -0.88234347 0.26456213 -0.38920218
-0.062638804 -0.053002402 -0.046260301 -0.76306635 0.26939911 -0.58749825
-0.052844401 -0.054170202 -0.057112705 -0.63930339 0.25483212 -0.72550136
-0.072811902 -0.051904403 -0.027294802 -0.89879149 0.26546913 -0.34885716
-0.074335098 -0.052726503 -0.023629501 -0.92060745 0.26457712 -0.28719711
-0.058734603 -0.054590803 -0.051354002 -0.71216136 0.26734713 -0.64911735
-0.068947904 -0.053805303 -0.037048701 -0.84136438 0.26937112 -0.46855825
-0.065377101 -0.055036001 -0.043431304 -0.80768538 0.26866013 -0.52484924
-0.072163902 -0.054704901 -0.0310628 -0.87881446 0.27209511 -0.39198217
-0.075166203 -0.056990702 -0.024917101 -0.92332047 0.25811613 -0.28435212
-0.070195101 -0.058646403 -0.0375995 -0.83478338 0.26015711 -0.48523822
-0.071791403 -0.057654403 -0.033890501 -0.87309635 0.26694912 -0.40797219
-0.073839001 -0.057706404 -0.029084602 -0.9008975 0.25662613 -0.35003918
-0.073986404 -0.061034303 -0.031057902 -0.89227247 0.25563112 -0.37216219
-0.072336502 -0.061536703 -0.035158202 -0.86463338 0.24337812 -0.43951923
-0.069521204 -0.062146101 -0.040411901 -0.82785338 0.24982911 -0.50224024
-0.075597003 -0.063820504 -0.029273001 -0.89417845 0.26739413 -0.35909018
-0.081144303 -0.065694503 -0.010865501 -0.82491434 0.50194222 -0.25994512
-0.069878899 -0.064984903 -0.041371301 -0.81222236 0.25731212 -0.52353221
-0.081119798 -0.068695508 -0.015600201 -0.83472937 0.46204224 -0.29957613
-0.078076802 -0.066976607 -0.024550401 -0.92230147 0.26426911 -0.28199711
-0.087680504 -0.070490003 0.0070979102 -0.65685636 0.74577433 0.11118606
-0.046910502 0.056674305 -0.012612401 -0.52211726 0.84389538 -0.12342806
-0.049745705 0.054637104 0.0052043805 -0.76376033 0.62413323 0.16470709
-0.0499046 0.054005902 -0.0124765 -0.78933233 0.58455825 -0.18774208
-0.051653601 0.052677203 -0.0060794405 -0.87431335 0.48061723 -0.067700028
-0.052054904 0.049732 -0.012703501 -0.89991349 0.39757618 -0.17913508
-0.052693903 0.046229001 -0.0156761 -0.89690048 0.36814418 -0.24503112
-0.055208102 0.0440071 0.00044555502 -0.9372195 0.34412616 0.056547329
-0.054363802 0.046635102 -0.0030828801 -0.93015748 0.36716017 0.00060951523
-0.055206504 0.043724604 -0.0080476403 -0.93153447 0.35114917 -0.094539046
-0.054334205 0.042444304 -0.0154445 -0.89043546 0.35463318 -0.28523812
-0.056253001 0.0397636 0.0046258406 -0.93719047 0.32572317 0.12481706
-0.057298005 0.038487501 -0.0015243901 -0.94606251 0.32345816 0.018507507
-0.055666804 0.0376532 -0.016915301 -0.9042325 0.31410518 -0.2893151
-0.056727104 0.034025602 -0.01691 -0.9259395 0.27738312 -0.25631213
-0.056976102 0.0377785 -0.0107049 -0.93678248 0.31244513 -0.15753309
-0.058662001 0.033934202 -0.00582253 -0.9557485 0.28957713 -0.051871322
-0.058128402 0.030749202 -0.015214301 -0.93481046 0.26703113 -0.23414911
-0.059293404 0.029083202 -0.012097901 -0.95512348 0.2591491 -0.14346406
-0.058211304 0.033328 -0.0114702 -0.94573748 0.28011212 -0.1646781
-0.060579501 0.025333202 -0.0099761803 -0.96464646 0.22825313 -0.13175306
-0.060569502 0.0269567 0.00090931309 -0.96798748 0.24303111 0.062745631
-0.059508901 0.025320603 -0.015705701 -0.94612545 0.23997012 -0.21739809
-0.060575102 0.027087202 -0.00580084 -0.96627349 0.25266212 -0.049780224
-0.060466804 0.0210992 -0.015943401 -0.94832546 0.20566009 -0.24162711
-0.061582405 0.022916002 -0.0034815902 -0.9763025 0.2154481 -0.020393711
-0.061675206 0.0206127 -0.010177501 -0.97163248 0.20073409 -0.12504706
-0.0603934 0.017005302 -0.018932601 -0.93633848 0.17810509 -0.30257213
-0.061595906 0.0152486 -0.015617101 -0.95799547 0.16169609 -0.23685412
-0.062409103 0.019113502 -0.0029387702 -0.98025149 0.19757009 -0.008613294
-0.062490303 0.0172085 -0.0086092204 -0.98238045 0.16638409 -0.085124142
-0.062260102 0.015394401 -0.011920201 -0.97317547 0.15737109 -0.16782609
-0.063004002 0.012649101 -0.0099045401 -0.9815895 0.13519207 -0.13492906
-0.062290505 0.0114182 -0.0152259 -0.97146648 0.13504305 -0.19498008
-0.063351102 0.012485601 -0.0058482103 -0.98942345 0.13866606 -0.042596322
-0.061376002 0.0065845801 -0.020878101 -0.94911849 0.11487006 -0.29322413
-0.061615303 0.00975978 -0.018740103 -0.94812047 0.13901606 -0.28590813
-0.064304903 0.0063539301 -0.0025007401 -0.99422246 0.10696305 0.009047864
-0.063863903 0.0089817112 -0.00104905 -0.99031448 0.13307206 0.039618123
-0.062994704 0.0066669304 -0.014623801 -0.9723025 0.11177506 -0.2052701
-0.064859204 -0.00077503908 -0.00048537704 -0.99630445 0.077700131 0.036611915
-0.064841308 -0.0082428111 -0.010632301 -0.9831605 0.11845606 -0.13915806
-0.067938603 -0.067679003 -0.045312405 -0.80626434 0.27433312 -0.52409923
-0.065495104 -0.010639001 -0.0079556406 -0.98199946 0.17948508 -0.058847729
-0.064280197 -0.010103201 -0.015325801 -0.95825446 0.18441209 -0.21849909
-0.065673001 -0.012685301 -0.011825601 -0.96118045 0.23309413 -0.14764705
-0.065873399 -0.018984502 -0.019094601 -0.93419147 0.25305712 -0.25149313
-0.066926107 -0.019030601 -0.014819801 -0.94771147 0.26472211 -0.17823009
-0.067965202 -0.0205197 -0.010884301 -0.9570905 0.26498511 -0.11730906
-0.089012809 -0.071173601 0.0032358503 -0.66781038 0.74429536 0.0073570139
-0.067684308 -0.0238056 -0.017162101 -0.9398635 0.26290411 -0.21803609
-0.068726502 -0.022036802 -0.0072217206 -0.96205747 0.26679811 -0.057141829
-0.068901807 -0.024760202 -0.012143101 -0.9541775 0.2636041 -0.14162706
-0.0699929 -0.026419401 -0.0064532901 -0.96601647 0.25499013 -0.042340022
-0.068973705 -0.028493701 -0.017538501 -0.9416405 0.26598611 -0.20631209
-0.070410803 -0.030424502 -0.012687101 -0.95483845 0.26147011 -0.14113106
-0.070159204 -0.032622602 -0.017357301 -0.94098645 0.26229411 -0.21388608
-0.069192603 -0.033831201 -0.022224201 -0.92406249 0.26325813 -0.27713713
-0.071043298 -0.030737802 -0.0072072004 -0.96432048 0.26106513 -0.043946523
-0.071799599 -0.035187501 -0.0120927 -0.9517535 0.27116311 -0.14365406
-0.071910203 -0.033525802 -0.0032294001 -0.96249348 0.27128911 -0.0030810214
-0.071339406 -0.038054004 -0.018854901 -0.94139546 0.26931012 -0.2030931
-0.0725471 -0.037064403 -0.009988551 -0.96117747 0.26562911 -0.074694328
-0.073567808 -0.040793002 -0.0106432 -0.95924848 0.27285412 -0.073441528
-0.074853405 -0.045504604 -0.0107731 -0.96153748 0.25811812 -0.093919948
-0.075357698 -0.052746303 -0.019909801 -0.93593949 0.26886511 -0.22744212
-0.075478502 -0.050152201 -0.015295301 -0.95131546 0.26539311 -0.15673809
-0.077261709 -0.053000305 -0.0062504807 -0.9596855 0.28022012 -0.021966711
-0.076874606 -0.053904902 -0.013482301 -0.95062649 0.28121012 -0.13127007
-0.077411108 -0.057852603 -0.0165684 -0.94818145 0.26085413 -0.18140408
-0.078011207 -0.056329403 0.00251754 -0.93947846 0.33932218 0.047349721
-0.078741409 -0.058245804 -0.0058263899 -0.9457925 0.32380217 -0.025097011
-0.077034302 -0.0608113 -0.0219777 -0.93426746 0.26296312 -0.24082512
-0.079900101 -0.060470302 0.0025173 -0.8801285 0.47441524 0.017495807
-0.076377608 -0.062583901 -0.025866201 -0.91426545 0.26192212 -0.30905911
-0.078820199 -0.061953403 -0.014863101 -0.93467546 0.30598411 -0.18098509
-0.08038871 -0.061618004 -0.0036887703 -0.86420739 0.50018024 -0.054461122
-0.079696298 -0.062002104 -0.0095317904 -0.91496545 0.37772617 -0.14199606
-0.081925206 -0.063651703 0.0041760001 -0.80163538 0.59423023 0.065359131
-0.079020798 -0.065478705 -0.019382201 -0.93084848 0.28523913 -0.22838612
-0.083915502 -0.066029802 0.0011714 -0.78265238 0.62192726 -0.025735311
-0.080637708 -0.071365304 -0.020124702 -0.8854335 0.35472018 -0.30030313
-0.049116403 0.055649702 -0.0072445404 -0.63826638 0.76672733 -0.06888923
-0.044920303 -0.061477505 0.057088405 -0.48500925 0.25765613 0.83569133
-0.0839286 -0.069939405 0.017897001 -0.66301036 0.68021333 0.31261417
-0.082291611 -0.071172304 0.023505401 -0.62185222 0.70695639 0.33691719
-0.045673102 0.023138301 0.034672502 -0.69799536 0.20805509 0.68521339
-0.045574702 0.0047946405 0.038578499 -0.66341436 0.11099006 0.73997533
-0.050103601 0.00452099 0.034146804 -0.71689433 0.096686445 0.69044536
-0.054358505 -0.031361099 0.039486002 -0.71458834 0.25454813 0.65159035
-0.058358505 -0.030548101 0.034405399 -0.77246433 0.26481912 0.57720923
-0.057073202 -0.046990704 0.0427894 -0.68754238 0.26371112 0.67656738
-0.060123801 -0.049081102 0.040185504 -0.74806035 0.26186612 0.60978127
-0.056568701 -0.050941303 0.044876702 -0.67709935 0.27022913 0.68448037
-0.060819402 -0.0597292 0.043720603 -0.72034633 0.26044112 0.64286333
-0.083998106 -0.067655407 -0.0077805002 -0.74340636 0.63178837 -0.21952312
-0.083547704 -0.070385702 -0.0146994 -0.61934024 0.68994635 -0.37468919
-0.085175104 -0.0700069 -0.010123501 -0.69862837 0.65739834 -0.28239512
-0.081721298 -0.0648425 0.011070501 -0.73907334 0.63867038 0.21417809
-0.088439703 -0.071179606 -0.0043405802 -0.65420336 0.74888736 -0.10576905
-0.085288204 -0.069088407 0.012525201 -0.68347335 0.70395833 0.19315308
-0.058882602 -0.068693802 0.049182802 -0.64457434 0.27071211 0.71501034
-0.051382903 -0.067814603 0.054678105 -0.55046922 0.26437312 0.79189134
0.086463802 -0.042779401 -0.0179637 -0.98503149 0.057699829 0.16243309
-0.029269101 -0.067641608 0.065761901 -0.32426119 0.24351312 0.91408849
0.091300204 0.027951002 -0.011293801 -0.70323533 0.037984714 0.70994234
-0.045144103 -0.065719105 0.058241203 -0.49600825 0.25867313 0.82889336
0.00463115 0.057703402 0.033041801 0.13860805 0.81339538 0.56495726
0.091717206 0.019990001 -0.0107123 -0.66849035 0.036434915 0.74282837
0.094638005 0.0201439 -0.0086891903 -0.42889619 0.035007514 0.90267545
-0.0270833 0.054678302 0.034231704 -0.34818417 0.60965526 0.71210235
-0.029240202 0.049302902 0.036165603 -0.39362118 0.40233019 0.82655537
0.089030102 0.0052690003 -0.013481201 -0.88057649 0.0041461317 0.47388723
0.087800108 0.0036110701 -0.016963301 -0.97228545 0.017541207 0.23313811
0.093101203 0.0079917703 -0.0090456111 -0.55806422 0.046468422 0.82849634
0.090987608 0.0026099901 -0.010722801 -0.72282034 0.027094511 0.69050539
-0.035143401 0.050583504 0.0318144 -0.51981223 0.42824718 0.73918939
-0.033905901 0.045184202 0.035436403 -0.52553922 0.35880518 0.77140635
-0.026391702 0.044327904 0.039539002 -0.32841319 0.36679918 0.87040538
0.087894805 -2.72053e-05 -0.015787302 -0.9728235 0.038762115 0.22828312
0.089124404 0.0015535501 -0.0130559 -0.87783849 0.016474208 0.47867423
-0.031130601 0.0424162 0.038189802 -0.44188723 0.32450917 0.83631939
0.0078048403 0.036423303 0.042604003 0.34558317 0.35846516 0.86722338
-0.026835501 0.037404001 0.041928701 -0.33525217 0.31068811 0.88942748
-0.038444001 0.0392856 0.034782398 -0.54695725 0.32291418 0.77237636
0.090680704 -0.0024347 -0.010764101 -0.78016138 0.026533712 0.62501538
-0.031139001 0.036432203 0.040400799 -0.43938124 0.30275112 0.84574634
0.088568807 -0.0052464702 -0.013782 -0.92458946 0.072647631 0.37397617
0.093074307 -0.0031520901 -0.0086025 -0.59122723 0.032704417 0.80584234
0.08928331 -0.0066275205 -0.012344001 -0.80578434 0.026495311 0.59161621
0.0899406 -0.0098154899 -0.011185301 -0.78709638 0.031592716 0.61602122
-0.035708502 0.035236999 0.038300902 -0.51490426 0.30029312 0.80293137
0.087526605 -0.0096347807 -0.015778901 -0.94713849 0.024277611 0.31990817
-0.0275528 0.032124702 0.043328203 -0.34977919 0.28047511 0.89386249
0.091675006 -0.0121039 -0.0093275104 -0.65937835 0.030398514 0.75119734
-0.024155302 0.032184802 0.044443101 -0.24253412 0.27750611 0.9296065
-0.0193974 0.029001201 0.046558801 -0.19418108 0.28854012 0.93757045
-0.031126902 0.028504603 0.042969801 -0.39859816 0.26822111 0.87702745
0.087031506 -0.0185208 -0.016288701 -0.97153145 0.048047122 0.23199011
-0.041425802 0.029629901 0.0361409 -0.62724733 0.24708512 0.73858738
0.088951111 -0.015376701 -0.0123965 -0.83632839 0.051872224 0.54577023
-0.040758502 0.033057 0.035485301 -0.62413526 0.28018513 0.72935033
0.086431399 -0.022838 -0.020078 -0.99881446 0.041780122 -0.024986012
0.092488199 -0.015618301 -0.0085534099 -0.64542037 0.06046873 0.76143038
-0.038520601 0.029016102 0.03853 -0.55528027 0.25641811 0.79114735
0.088054605 -0.019872401 -0.013457901 -0.87632149 0.042925321 0.47981223
0.090534106 -0.020522602 -0.0099046202 -0.75826436 0.047651824 0.65020436
-0.035169899 0.028242102 0.040984903 -0.49720722 0.25416312 0.82957035
0.086807609 -0.0225843 -0.017116802 -0.97667146 0.015029907 0.2142171
0.087659903 -0.022639301 -0.014491201 -0.95125747 0.031203015 0.30681711
-0.031851802 0.023653401 0.044020001 -0.42671919 0.22910812 0.87488335
0.088328004 -0.023319501 -0.012763401 -0.85904235 0.036966115 0.51056921
0.086373501 -0.025502702 -0.0187988 -0.99240947 0.027721215 0.11981306
0.092421904 -0.022389 -0.0081210211 -0.64405835 0.043477222 0.76374036
0.087219909 -0.0265126 -0.0147251 -0.95062548 0.022349311 0.30953512
0.0890982 -0.0248676 -0.0115443 -0.80557334 0.035072315 0.59145725
-0.040795505 0.022347702 0.038818102 -0.57236522 0.23518813 0.78554738
-0.043184001 0.019369101 0.037802301 -0.61488223 0.19719309 0.76356733
-0.030610802 0.0193725 0.0456485 -0.39431319 0.20593509 0.8956055
-0.026617901 0.019578302 0.047111504 -0.30113611 0.20718008 0.93080348
0.086523302 -0.0284565 -0.0186071 -0.99347746 0.0018021109 0.11401906
0.087775201 -0.029225502 -0.013515001 -0.90705448 0.016318008 0.42069817
-0.037575804 0.021538101 0.0414133 -0.52071023 0.21236108 0.82690036
0.089824103 -0.027195603 -0.010225001 -0.74135834 0.038974814 0.66997737
0.091777101 -0.031529602 -0.0081452904 -0.67458236 0.051009022 0.73643637
-0.021414202 0.016928701 0.049098101 -0.21141209 0.1947441 0.95779949
0.088709511 -0.032635901 -0.0116852 -0.83499533 0.030184316 0.54942924
-0.037755504 0.0160919 0.042548101 -0.53905725 0.16080609 0.82677639
0.086397603 -0.0338099 -0.018836301 -0.9900865 0.017292308 0.13939206
-0.043020405 -0.069857202 0.060554802 -0.43646619 0.25112513 0.86396438
-0.034355599 0.016733602 0.044415601 -0.45000425 0.18280108 0.87411737
-0.026052002 0.0161488 0.047913801 -0.30588412 0.1751601 0.93581748
0.087136202 -0.033115003 -0.014968001 -0.95410746 0.011577005 0.29924011
0.090511709 -0.035586201 -0.0089567406 -0.76200438 0.048509624 0.64575338
-0.031328302 0.012620301 0.046566505 -0.41791219 0.15054105 0.8959285
0.087447204 -0.0360425 -0.0138244 -0.93700749 0.012169206 0.34909818
0.086371906 -0.039383903 -0.018385001 -0.9865995 0.0071582035 0.16300508
-0.041412603 0.010273901 0.041101202 -0.57945925 0.13053806 0.80448037
-0.023795402 0.010723601 0.049644303 -0.28232813 0.16192009 0.94555449
-0.029548801 0.0146255 0.0469652 -0.35335919 0.17375009 0.91921145
0.086935207 -0.035625502 -0.016343201 -0.97062945 0.027952716 0.23895112
0.090345904 -0.040154204 -0.0088732997 -0.76436734 0.06769903 0.64121836
0.096484102 -0.035654303 -0.0047410103 -0.40681016 0.094917744 0.9085685
-0.015819101 0.01166 0.051068202 -0.13954106 0.17090009 0.97535747
0.085948899 -0.043839302 -0.020331001 -0.9974255 0.070874028 0.010970705
0.087928601 -0.039530303 -0.0126175 -0.88251346 0.040595822 0.46853325
-0.0285355 0.0097963605 0.048290301 -0.34621817 0.15192506 0.92577147
0.093713604 -0.0385602 -0.0058261603 -0.56512022 0.07600823 0.82150036
0.086894102 -0.042449202 -0.014630401 -0.96424848 0.049871121 0.26026812
-0.035186701 0.0119264 0.044805802 -0.48261824 0.14483206 0.86377335
0.088470809 -0.041636702 -0.011361201 -0.86718434 0.066119328 0.49358025
-0.038355704 0.0075933305 0.043632202 -0.54206824 0.12764005 0.83058536
-0.027235702 0.0058290605 0.049266301 -0.32800919 0.12899105 0.93582749
0.091811702 -0.042223305 -0.0073500504 -0.66621834 0.10657705 0.73810238
-0.0426526 0.0041276598 0.040974099 -0.60049325 0.11113606 0.79186934
0.086590804 -0.0473378 -0.015556501 -0.96093249 0.13469206 0.24179912
0.089751005 -0.045979701 -0.0087550301 -0.79594737 0.12565206 0.59218323
-0.034262501 0.0060464703 0.046255905 -0.46708325 0.12790306 0.87491435
-0.030936401 0.0059100804 0.047804903 -0.40023217 0.12245806 0.9081955
0.094546005 -0.043424401 -0.0049634804 -0.52912426 0.13665606 0.83746839
0.087364204 -0.045599602 -0.0127961 -0.89215147 0.071547329 0.44603524
-0.038074002 0.0045898003 0.044224203 -0.53160322 0.11168406 0.83959836
0.092060901 -0.047479805 -0.0058710901 -0.64955837 0.18924709 0.73638338
0.087468699 -0.048417103 -0.0120011 -0.87582648 0.22996712 0.42431518
0.089488201 -0.049639303 -0.0081123607 -0.77863038 0.25290212 0.57426125
0.085680202 -0.0503732 -0.014953901 -0.90148848 0.32874617 0.28150612
-0.033870902 0.0023568301 0.046903804 -0.42597017 0.11530006 0.8973605
-0.026904 8.5283602e-05 0.050137602 -0.30663213 0.067277029 0.94944745
0.094493501 -0.049910199 -0.0036170201 -0.46712422 0.22029312 0.85631037
-0.030390302 -0.00038727903 0.048862703 -0.38076818 0.082545348 0.9209795
0.087090306 -0.052232802 -0.0098195905 -0.77145934 0.41531917 0.48203924
-0.035071403 -0.00167667 0.046804402 -0.49393424 0.05953563 0.86745936
0.093357302 -0.053718902 -0.0028815502 -0.43067917 0.42322117 0.79712033
-0.0336143 -0.00488509 0.047531001 -0.46175423 0.058128431 0.8851015
-0.0295336 -0.0043990202 0.049361404 -0.37301719 0.081053741 0.92427748
-0.010618701 -0.0083782002 0.054048702 -0.13326606 0.16665909 0.97696745
-0.039007302 -0.0069102803 0.044584002 -0.53084725 0.087369442 0.84295237
-0.027388502 -0.0105798 0.050977405 -0.35274318 0.1998331 0.91413349
-0.043707803 -0.0118941 0.0422813 -0.61885524 0.23299612 0.75015438
-0.036132101 -0.013107101 0.047814 -0.48460224 0.25068611 0.83804435
-0.040496301 -0.0114229 0.044523403 -0.54323024 0.22856411 0.80787337
-0.031399403 -0.013332901 0.0502063 -0.38754418 0.26057413 0.8842575
-0.044488605 -0.016162399 0.043136902 -0.60740823 0.2670761 0.74814838
-0.025766801 -0.014893801 0.052951101 -0.30502713 0.2773641 0.91105849
-0.0267724 -0.018671602 0.053695802 -0.30659613 0.25143513 0.9180305
-0.041460704 -0.0176451 0.0459469 -0.54721123 0.25902611 0.79590636
-0.0219371 -0.017173301 0.054720502 -0.25121313 0.27343613 0.92850745
-0.035542503 -0.016863301 0.049295902 -0.45682925 0.26230112 0.85000336
0.014697401 -0.030255601 0.057856604 0.29492611 0.28500813 0.91202545
-0.0300577 -0.018749902 0.052472603 -0.38047519 0.26049513 0.88734549
0.015530101 -0.026831701 0.0565174 0.31584418 0.29453513 0.9019385
-0.046907503 -0.020000601 0.042551104 -0.63259238 0.25619611 0.73088437
-0.0343065 -0.0197531 0.0508122 -0.43116918 0.24636012 0.86798638
-0.018727699 -0.017345201 0.055499803 -0.17049509 0.27890113 0.94506449
-0.040386103 -0.020635599 0.047613204 -0.50847524 0.25201011 0.82337433
-0.040787105 -0.024160802 0.048480205 -0.51829022 0.25541711 0.81617337
-0.034005001 -0.023512201 0.052052204 -0.43062517 0.25624013 0.86539239
-0.028817002 -0.0232493 0.054133903 -0.34900218 0.25559813 0.90159148
-0.022517301 -0.0293954 0.058024902 -0.24713212 0.25849611 0.9338665
-0.045304101 -0.0276356 0.046340503 -0.58213025 0.25811213 0.77104038
-0.036498602 -0.026896402 0.051737305 -0.44681823 0.25474912 0.85758734
-0.026625101 -0.0265304 0.055948503 -0.30961213 0.26639813 0.9127835
-0.040427402 -0.028857702 0.050105102 -0.50866824 0.25291112 0.82297838
-0.0303063 -0.028809601 0.055229601 -0.37792319 0.25456911 0.8901515
-0.026798701 -0.031652801 0.057325505 -0.30710611 0.25153211 0.91783345
-0.0164889 -0.0288433 0.059234906 -0.1624831 0.26675111 0.94997048
-0.049321502 -0.0308042 0.044200905 -0.64152133 0.24924812 0.72548437
-0.045573801 -0.032014199 0.047693502 -0.57662123 0.24949712 0.77798438
-0.034835301 -0.031778403 0.054066006 -0.43309119 0.25246111 0.86527234
-0.052855302 -0.033758204 0.041907702 -0.67767435 0.26503313 0.68594134
-0.049725 -0.034781702 0.045196202 -0.63120437 0.24972612 0.73431534
-0.0474055 -0.036899302 0.047666404 -0.59569621 0.24916412 0.76358634
-0.0330915 -0.034821201 0.055687305 -0.39951119 0.24782412 0.88259548
-0.025193501 -0.0370044 0.059316605 -0.30836913 0.24495812 0.91918749
-0.021349702 -0.036054503 0.060202904 -0.23007712 0.24638112 0.94146746
-0.042027403 -0.033642102 0.050609302 -0.51968223 0.24730211 0.81778538
-0.029380502 -0.033969801 0.056953203 -0.34626019 0.25040111 0.90410447
-0.038515002 -0.035264902 0.053158201 -0.45316225 0.24510811 0.85706937
0.017018901 -0.044603001 0.061370704 0.3006041 0.26844111 0.91519248
-0.041722003 -0.037474502 0.051867902 -0.51468927 0.24029012 0.82301736
-0.0300717 -0.041444305 0.0588906 -0.35146317 0.24717511 0.90298349
-0.025377601 -0.040741604 0.060224302 -0.28177711 0.23917812 0.92919147
-0.065220602 -0.069294102 -0.050259702 -0.75818133 0.11044606 -0.64262235
-0.034080502 -0.039751705 0.056580402 -0.41764617 0.24889112 0.87385637
-0.045890301 -0.038490202 0.049391802 -0.56128025 0.25681812 0.78677136
-0.038806502 -0.040304001 0.054420702 -0.46050423 0.24497011 0.85318637
-0.043250903 -0.041993804 0.052288603 -0.50935024 0.25007012 0.82342434
-0.043696605 -0.047320802 0.053659603 -0.51524025 0.24960113 0.81989539
-0.038384303 -0.047651302 0.056746002 -0.45572025 0.24706912 0.85514736
-0.028637901 -0.049009502 0.061356802 -0.32756719 0.24130712 0.91349447
-0.034272704 -0.0442614 0.0578341 -0.39639717 0.23905912 0.88640946
-0.023444301 -0.047809605 0.0626899 -0.25890911 0.24207312 0.93507648
-0.047339201 -0.045297004 0.050598502 -0.55683124 0.25322613 0.79108536
-0.053128105 -0.047015205 0.046509903 -0.64364135 0.26069313 0.71955937
-0.034754202 -0.047304101 0.058350105 -0.39459917 0.24623913 0.8852455
-0.053686604 -0.052080203 0.047919001 -0.63092136 0.25447011 0.73292834
-0.040595502 -0.049733102 0.056136005 -0.47595525 0.25250113 0.84244335
-0.024062501 -0.052621704 0.063634999 -0.25840813 0.23382013 0.93731248
-0.050449502 -0.051069502 0.050204001 -0.57651722 0.25101811 0.77757233
-0.0442045 -0.051430501 0.054590501 -0.52040726 0.25242013 0.81575835
-0.051372502 -0.055232801 0.050847601 -0.58572823 0.24915312 0.77126235
-0.033424601 -0.054320805 0.060924303 -0.38193119 0.23088712 0.89488548
-0.029641002 -0.055324104 0.062490903 -0.31172112 0.23586512 0.92043346
-0.025262401 -0.056563001 0.064373106 -0.27480513 0.23167013 0.93317348
-0.046287999 -0.055143002 0.0544498 -0.52271324 0.24412212 0.81680834
-0.084598504 -0.067146003 0.0069298805 -0.73210835 0.67591935 0.084563144
-0.039435603 -0.054774702 0.058301002 -0.44434324 0.23574112 0.86428338
-0.035984702 -0.056989502 0.060390804 -0.39656219 0.22068912 0.89108646
-0.054243501 -0.059028201 0.049779303 -0.60577822 0.2654961 0.75003034
-0.049334705 -0.059490204 0.053627804 -0.55523825 0.25138211 0.79279137
-0.044644203 -0.0580048 0.056197803 -0.49022824 0.22930811 0.84088933
-0.088962801 -0.071236804 0.0086736698 -0.44725323 0.89245546 0.059065331
-0.039844103 -0.059509903 0.059207302 -0.43317619 0.23976412 0.86883438
-0.086512104 -0.0713493 0.0162118 -0.61344421 0.73716134 0.28333911
-0.033891801 -0.062082604 0.062691905 -0.38039216 0.23017012 0.89572549
-0.049617402 -0.063734703 0.054868001 -0.53717822 0.23795012 0.80921036
0.08610411 -0.037401903 -0.019380601 -0.99008948 0.015810907 0.13955006
0.087799706 -0.0038189201 -0.015836701 -0.94280446 0.018875908 0.33281219
0.086761706 -0.0175409 -0.0195 -0.99805945 0.061513431 -0.009721674
-0.026685402 0.026683003 0.045302201 -0.30380112 0.25426912 0.91817945
-0.087991104 -0.071234107 0.0118861 -0.59942925 0.78665239 0.14785907
0.0082199806 0.055801403 -0.039171502 0.37788117 0.50410724 -0.77658337
0.085719205 -0.047097303 -0.0188972 -0.98472846 0.14211906 0.10056005
0.078781903 -0.058724403 -0.019270202 0.12145206 -0.98822349 0.093084648
0.078262404 -0.059479203 -0.023741001 0.25242111 -0.9525525 0.17008309
0.0823621 -0.057638403 -0.019497901 0.44877923 -0.89285648 0.037504114
-0.066803202 -0.033326805 0.017543802 0.91560251 -0.25109413 -0.31404617
-0.07070291 -0.042211901 0.012043701 0.94349647 -0.21076509 -0.25572211
-0.067986608 -0.034225401 0.0148614 0.92239147 -0.26090312 -0.28482312
-0.072284408 -0.044418801 0.0090225004 0.94438148 -0.21567708 -0.24825011
-0.0713249 -0.041321401 0.0092719002 0.94450146 -0.25357413 -0.20884909
-0.07235691 -0.043057602 0.0062690005 0.95824945 -0.24743512 -0.14330307
-0.0698862 -0.0372408 0.0111029 0.94203448 -0.24981712 -0.22397211
-0.070596904 -0.037262201 0.0070819003 0.95252645 -0.26473212 -0.15037306
-0.074327104 -0.049513303 0.0039502601 0.96665448 -0.21950512 -0.13190305
-0.072902404 -0.043617904 0.0025746201 0.96128446 -0.25890812 -0.094337948
-0.069779404 -0.034092702 0.0066046803 0.95153749 -0.26514313 -0.15580906
-0.067973904 -0.030545801 0.011059101 0.93975246 -0.26723912 -0.21319109
-0.067910105 -0.027777502 0.0076113706 0.95486146 -0.26470512 -0.13480306
-0.073462799 -0.044631101 -0.00094889203 0.96684748 -0.25509113 -0.011598806
-0.070560306 -0.035266303 0.0037818202 0.9590295 -0.26885313 -0.089335948
-0.068790503 -0.028256401 0.00066811702 0.9619385 -0.26588112 -0.063109629
-0.071940906 -0.038983401 -0.00134812 0.96317345 -0.26799712 -0.021799812
-0.07426551 -0.0478561 -0.0060799103 0.97054446 -0.23330712 0.060107231
-0.070648305 -0.034552 -0.00236991 0.96301645 -0.26938313 -0.0057744426
-0.073130205 -0.043992002 -0.0064283903 0.9630875 -0.26420411 0.051563021
-0.069758698 -0.032382499 0.0031397801 0.95797348 -0.27288812 -0.088426344
-0.068161599 -0.025487302 -0.0019286501 0.96571445 -0.25960213 -0.0019215009
-0.072095908 -0.0401452 -0.0056460905 0.9617945 -0.26846713 0.053650521
-0.067697503 -0.024629401 0.00194084 0.96396047 -0.25294912 -0.082451344
-0.069373302 -0.029887801 -0.0046535102 0.96347648 -0.26660112 0.025261512
-0.07036151 -0.035103403 -0.0101788 0.95757347 -0.26818612 0.10549904
-0.072548002 -0.043031801 -0.011307701 0.95681447 -0.27033913 0.10688104
-0.067515701 -0.023825401 -0.0065793903 0.96361947 -0.26138511 0.055830128
-0.0732622 -0.046599403 -0.013329701 0.9604345 -0.23994611 0.14139906
-0.067944303 -0.0258711 -0.0088187112 0.95926648 -0.26655611 0.093573347
-0.069854699 -0.032460202 -0.0080985809 0.9622575 -0.26277012 0.070804231
-0.068950504 -0.030985601 -0.0123904 0.9560225 -0.26162612 0.13256806
-0.066703603 -0.021821901 -0.0102651 0.95870149 -0.26628512 0.099917844
-0.071329601 -0.040400203 -0.0131275 0.94070548 -0.28176513 0.18889709
-0.067882404 -0.0276876 -0.013415901 0.94486046 -0.26967612 0.18577909
-0.066897802 -0.023446402 -0.0122677 0.94709849 -0.26926211 0.17465509
-0.065632604 -0.018801702 -0.011403 0.95231545 -0.26728511 0.14715406
-0.071362399 -0.0424367 -0.016324401 0.94110346 -0.25928712 0.21701309
-0.070367999 -0.037025701 -0.013462401 0.94909048 -0.26060912 0.17694709
-0.068709508 -0.032019299 -0.015358301 0.94318348 -0.26206413 0.20427309
-0.072266705 -0.048842903 -0.0189746 0.93513149 -0.24459612 0.25632411
-0.064901203 -0.018858202 -0.0153993 0.94307047 -0.25755912 0.21043509
-0.069875605 -0.041188404 -0.021126602 0.92660248 -0.25336111 0.27787912
-0.068678305 -0.034543999 -0.0184779 0.93153447 -0.26920813 0.24448211
-0.066974603 -0.028424501 -0.017948002 0.92683846 -0.27157012 0.25926912
-0.065833203 -0.023533702 -0.016886501 0.93607646 -0.26525611 0.23108812
-0.067928106 -0.035703499 -0.021793602 0.90633947 -0.27194211 0.32341719
-0.066298798 -0.032207001 -0.023598302 0.90494949 -0.26108712 0.33600819
-0.067529202 -0.038534801 -0.025053602 0.89626849 -0.27170211 0.35054517
-0.064609103 -0.027836202 -0.024747701 0.90371048 -0.25475511 0.34410617
-0.0656652 -0.026083002 -0.020262102 0.92329746 -0.25790411 0.28461811
-0.067302108 -0.040818501 -0.0274208 0.87648648 -0.26553613 0.40157518
-0.065164499 -0.036528099 -0.029456001 0.87667549 -0.25540411 0.40768817
-0.065887503 -0.043134 -0.031991303 0.85818934 -0.26491213 0.43969625
-0.061561503 -0.0170532 -0.024688501 0.88013345 -0.25003111 0.40354717
-0.064048 -0.032963403 -0.029567901 0.86582035 -0.25868911 0.42829418
-0.062704206 -0.027033802 -0.028742202 0.87063235 -0.26635513 0.41358918
-0.063852906 -0.041040801 -0.034502205 0.84145635 -0.26065212 0.47329924
-0.060624406 -0.0218489 -0.029454703 0.85886937 -0.26235411 0.43990424
-0.060859006 -0.029302301 -0.0333624 0.81221634 -0.27248612 0.51580626
-0.061074704 -0.033520103 -0.035337802 0.81804538 -0.26502812 0.51045322
-0.058911305 -0.016750799 -0.029819101 0.85060138 -0.24456611 0.46547425
-0.060050402 -0.024574101 -0.032016899 0.82921034 -0.26770112 0.49065924
-0.062352005 -0.037532799 -0.035272203 0.83002836 -0.25509712 0.49596423
-0.057568502 -0.0245906 -0.035980903 0.79831934 -0.25729513 0.54450524
-0.057054702 -0.018705901 -0.034007199 0.81383538 -0.24979812 0.52466625
-0.058159702 -0.033894699 -0.039713502 0.77171636 -0.26615313 0.57759625
-0.055033799 -0.023272 -0.038858104 0.75849134 -0.26164412 0.59685421
-0.0542753 -0.038930804 -0.046439204 0.72111738 -0.26976311 0.63813639
-0.055051401 -0.028225202 -0.041171104 0.75259435 -0.27310511 0.59918022
-0.052860104 -0.0255113 -0.042432003 0.72033435 -0.27072912 0.63861233
-0.054943405 -0.0346881 -0.044088703 0.72030038 -0.25708312 0.64426434
-0.050606001 -0.039136503 -0.050163399 0.65110737 -0.27273011 0.70829237
-0.050394002 -0.022298902 -0.043912105 0.67907238 -0.26336411 0.68520135
-0.051900703 -0.033111803 -0.046642102 0.68391335 -0.26845011 0.67837936
-0.050281104 -0.028928902 -0.046617102 0.66708136 -0.27306512 0.69313735
-0.048354503 -0.034863401 -0.050588403 0.62391222 -0.26801813 0.73409837
-0.0451326 -0.027745601 -0.050645802 0.61772627 -0.27718711 0.73592234
-0.045276701 -0.022967301 -0.048756503 0.62403822 -0.25530213 0.73851138
-0.043189403 -0.032475799 -0.053894702 0.57250625 -0.26724213 0.77512538
-0.045732103 -0.040506702 -0.054729402 0.58769226 -0.28313512 0.75792736
-0.0418326 -0.027352402 -0.052999202 0.55441725 -0.27492413 0.78551835
-0.041960303 -0.022342401 -0.051117603 0.57677722 -0.24793112 0.77836937
-0.0442544 -0.035581701 -0.054094102 0.56367522 -0.26704913 0.78163636
-0.042335302 -0.019120002 -0.0500044 0.58141524 -0.25577512 0.77235836
-0.039977003 -0.036507599 -0.057363704 0.51531422 -0.28411111 0.80853736
-0.040048201 -0.033105701 -0.056069102 0.51489127 -0.27168211 0.81306636
-0.038749404 -0.028444203 -0.055386003 0.49915823 -0.26159912 0.82607937
-0.0425817 -0.040711399 -0.056975104 0.54225725 -0.28805912 0.78929037
-0.037908904 -0.023816902 -0.054486699 0.51808226 -0.26079512 0.81460333
-0.036675803 -0.032558203 -0.057893701 0.48016024 -0.28416112 0.82987934
-0.039550301 -0.042855501 -0.059849303 0.50790626 -0.30727011 0.80474734
-0.035445999 -0.022190701 -0.055306304 0.44591725 -0.27124813 0.85298538
-0.036024202 -0.026884301 -0.056381904 0.46760124 -0.26343513 0.84377235
-0.033491701 -0.033906102 -0.060241703 0.40472218 -0.27240312 0.87292433
-0.032884702 -0.029377703 -0.058959704 0.43243816 -0.27569312 0.85848236
-0.030822001 -0.027316002 -0.059334304 0.36914617 -0.28337812 0.8851155
-0.028781101 -0.023691101 -0.058925603 0.30193913 -0.27853513 0.91173047
-0.0103761 -0.062122304 -0.075377904 0.15098806 -0.45256725 0.87885547
-0.055304904 -0.030530501 0.0362534 0.75469935 -0.28123012 -0.59273922
-0.057796005 -0.025515601 0.030792302 0.77637535 -0.27437311 -0.56741625
-0.055415202 -0.025959 0.034108799 0.76428634 -0.27148312 -0.58494824
-0.056905605 -0.021755101 0.030089101 0.76231736 -0.28548113 -0.58083922
-0.059013303 -0.0217839 0.026904 0.82294136 -0.26890913 -0.50045621
-0.055999905 -0.0175604 0.029290801 0.78390735 -0.25313812 -0.56693125
-0.055918705 -0.012658201 0.027217701 0.82934839 -0.25441712 -0.49744624
-0.057654206 -0.020130401 0.028304901 0.80561435 -0.25613913 -0.53420824
-0.057194203 -0.016084801 0.027188702 0.81315339 -0.28089911 -0.50978327
-0.053546801 0.010912501 0.025989501 0.84989637 -0.14173506 -0.50753123
-0.052503105 0.013972801 0.026575301 0.81475335 -0.16906609 -0.55461323
-0.049957301 0.0200231 0.028371701 0.80620939 -0.18731108 -0.56119627
-0.058934204 -0.017434401 0.024841802 0.84320635 -0.26883212 -0.46554625
-0.058106102 -0.015255801 0.024588602 0.84021837 -0.27801713 -0.46555424
-0.054067403 0.0069688605 0.025911802 0.86008638 -0.12547706 -0.49447823
-0.054136105 0.015081601 0.0238385 0.85555536 -0.15461706 -0.49408323
-0.050808001 0.025098201 0.025455501 0.80954534 -0.21654209 -0.54566121
-0.059599303 -0.016180201 0.022670701 0.86070937 -0.26829913 -0.43266219
-0.0559498 -0.00089452602 0.024198601 0.87879145 -0.072015829 -0.47174123
-0.055506703 0.0022235201 0.024689602 0.86264735 -0.10903905 -0.49391425
-0.052704103 0.017671602 0.025167102 0.82812536 -0.18674009 -0.52852327
-0.052599605 0.0225644 0.023727503 0.82593334 -0.19297908 -0.52971125
-0.057532702 -0.0036856302 0.021738401 0.91344148 -0.042257622 -0.40477017
-0.056233302 0.0055677202 0.022683902 0.87839347 -0.10434905 -0.46640825
-0.0582693 -0.0100276 0.0215689 0.9000175 -0.21270509 -0.38042817
-0.0577479 -0.0066557704 0.021345302 0.91649449 -0.077439733 -0.39248219
-0.058215201 0.00031828904 0.019687401 0.91614145 -0.073534727 -0.39405319
-0.056979101 0.00079898204 0.022164201 0.89313346 -0.080312848 -0.44256523
-0.057606604 0.0055152606 0.020014999 0.90095848 -0.097382545 -0.42283717
-0.055732705 0.0083587198 0.022829801 0.85856438 -0.13612506 -0.49430525
-0.055798102 0.013130001 0.021294001 0.87248033 -0.14199007 -0.46756625
-0.061080605 -0.0176381 0.020428801 0.87609547 -0.27545211 -0.39570618
-0.061109703 -0.015122501 0.018191401 0.88688946 -0.28075811 -0.36688319
-0.059597004 -0.011927101 0.019918101 0.88264048 -0.26951611 -0.38510817
-0.055482 0.018429002 0.020148201 0.88438851 -0.17608809 -0.43226317
-0.053941105 0.024272302 0.020752501 0.8812995 -0.19891009 -0.42865819
-0.052513003 0.025719201 0.0225868 0.83760434 -0.24440911 -0.48855323
-0.051106002 0.030497901 0.022460302 0.82651234 -0.26282513 -0.49779624
-0.054058202 0.027471302 0.018687401 0.87729049 -0.24467912 -0.41290918
-0.061286103 -0.012666701 0.0165096 0.91007948 -0.25766313 -0.32460117
-0.056924503 0.015454501 0.018163901 0.90273547 -0.16785608 -0.39609817
-0.054225001 0.0214919 0.021220701 0.86807734 -0.1974171 -0.45548725
-0.050687503 0.036766 0.019577701 0.85887635 -0.28447911 -0.42591417
-0.058473904 0.0052965702 0.017972101 0.91798246 -0.093554147 -0.38543117
-0.057510704 0.011123801 0.0186537 0.89957649 -0.13353506 -0.41585118
-0.057991903 0.013875701 0.0163329 0.92252249 -0.15867808 -0.35181618
-0.054813601 0.024704501 0.018141001 0.8911745 -0.19509208 -0.40957019
-0.053019404 0.033160601 0.017237801 0.87817448 -0.28153011 -0.38671818
-0.052293204 0.031715501 0.0197013 0.85256034 -0.26541513 -0.45021823
-0.059882306 -0.009296271 0.016979402 0.9078455 -0.19028209 -0.37364417
-0.059727404 0.0046725306 0.015009001 0.93566245 -0.088892944 -0.34151918
-0.059214104 0.0084608207 0.0152577 0.93310148 -0.12047506 -0.33883318
-0.063035004 -0.0167071 0.014835801 0.91206849 -0.27902311 -0.30046412
-0.060178105 -0.0057108207 0.0156781 0.93920648 -0.048444223 -0.33992019
-0.056877203 0.0198512 0.016276801 0.91720647 -0.18592109 -0.35237417
-0.055879004 0.022056602 0.0174581 0.8904025 -0.20852509 -0.40460119
-0.059415404 -0.0026924 0.0172594 0.9309845 -0.047819421 -0.36191317
-0.058964103 0.012392401 0.0141936 0.93123651 -0.14367706 -0.33489719
-0.058114801 0.017526101 0.014101901 0.9204635 -0.19678009 -0.33767718
-0.0559997 0.025351401 0.015699601 0.9044655 -0.22242811 -0.36396319
-0.055046503 0.030211702 0.014559901 0.90333349 -0.26619813 -0.33634517
-0.053345203 0.0347207 0.015010701 0.88979745 -0.29172811 -0.35093719
-0.052135002 0.037536599 0.015838601 0.88127649 -0.29509911 -0.36914718
-0.061374504 -0.0079984004 0.011958601 0.94693547 -0.17739309 -0.26804113
-0.060712103 -0.0072151902 0.013868901 0.94001245 -0.13147606 -0.31478918
-0.060213801 0.00151729 0.014460901 0.94946647 -0.071064226 -0.30571812
-0.059733205 0.011986501 0.012301501 0.95056045 -0.12303506 -0.28513011
-0.056781802 0.023862701 0.014212301 0.93298948 -0.19749509 -0.30087712
-0.050761502 0.039914802 0.0172808 0.90353447 -0.25777513 -0.34231418
-0.061136104 0.0021757202 0.011214301 0.95764649 -0.062531531 -0.28107613
-0.060144503 0.0070924102 0.0126486 0.95510745 -0.10625005 -0.27655411
-0.051197801 0.041348401 0.014763401 0.90367347 -0.26776713 -0.33418119
-0.063657604 -0.013482501 0.0096035004 0.92943549 -0.28227112 -0.23764011
-0.062768906 -0.013522801 0.012130801 0.9213385 -0.27698112 -0.27279612
-0.061233401 -0.0016400301 0.0116065 0.96100849 -0.060359031 -0.26985413
-0.059142802 0.015912902 0.012258701 0.94116646 -0.17697209 -0.28790113
-0.057741702 0.020261999 0.0132087 0.93403047 -0.19566908 -0.29883513
-0.056220103 0.0271792 0.013113501 0.92771447 -0.23924612 -0.28654411
-0.054384105 0.034845199 0.012368001 0.90668547 -0.29219213 -0.30421513
-0.061875705 0.0022531 0.007851271 0.97532445 -0.079007044 -0.20615909
-0.058576804 0.0200029 0.0110231 0.93858147 -0.2160451 -0.26905212
-0.050987303 0.044249404 0.013783501 0.96604151 -0.19917309 -0.16460709
-0.062196705 -0.0096652899 0.0102113 0.94022447 -0.22175612 -0.25846311
-0.061532203 -0.0037487901 0.0111289 0.9629305 -0.045116421 -0.26595312
-0.060625803 0.010325801 0.0096392306 0.96888947 -0.10632104 -0.22349612
-0.057536103 0.024061302 0.011474901 0.94131351 -0.21004409 -0.26422012
-0.055678103 0.031608701 0.011204001 0.91844445 -0.25420213 -0.30305412
-0.052524801 0.039109699 0.0135623 0.8906135 -0.2973341 -0.34409517
-0.059654102 0.018104501 0.008419361 0.95482546 -0.21242809 -0.20780709
-0.057447303 0.027173901 0.0090289004 0.94687545 -0.22623512 -0.22857212
-0.056755502 0.0284604 0.010756 0.92979145 -0.23553813 -0.28286111
-0.063096702 -0.0093859304 0.0062828599 0.9579165 -0.24857612 -0.14355206
-0.061845906 -0.0059712501 0.0100433 0.97643048 -0.064925127 -0.20583908
-0.060925599 0.0051962002 0.010735601 0.96287549 -0.10516605 -0.24862012
-0.058723904 0.0224947 0.0080041206 0.95627046 -0.20580909 -0.20782308
-0.062241603 -0.0029090401 0.0079153702 0.97928751 -0.052512724 -0.19555008
-0.060692303 0.013381001 0.0080882302 0.96551746 -0.14821506 -0.21403208
-0.053395201 0.039747801 0.010452201 0.91119146 -0.31181011 -0.26926711
-0.058134403 0.026108401 0.0073010307 0.95640445 -0.22020511 -0.19183709
-0.057225 0.031148301 0.0059796502 0.95368147 -0.26114011 -0.14932506
-0.055869602 0.033576503 0.00905299 0.93408948 -0.27756912 -0.22457612
-0.053840701 0.040365603 0.0079618106 0.92126346 -0.32722718 -0.21023309
-0.050006904 0.048346501 0.0113354 0.90194845 -0.37706318 -0.2105061
-0.062609799 -0.00024863103 0.0046896404 0.98755848 -0.073903129 -0.13880506
-0.061787002 0.0062881904 0.0063685006 0.98033047 -0.10196704 -0.16898508
-0.060584601 0.016586101 0.00548692 0.9741345 -0.18041308 -0.13606507
-0.062959202 -0.0046950602 0.0043762103 0.98896545 -0.015661107 -0.14732006
-0.061201103 0.011775101 0.0056322599 0.98022747 -0.12446206 -0.15383406
-0.061158102 0.01461 0.00275379 0.98415148 -0.15915409 -0.078209445
-0.055401903 0.035978299 0.0074517503 0.93466449 -0.2985191 -0.19310309
-0.052330203 0.045666002 0.0059545799 0.91371346 -0.35948417 -0.18947509
-0.051494904 0.045847803 0.0090729799 0.90787148 -0.35059017 -0.22990611
-0.062741704 -0.0077109304 0.0050349399 0.98604447 -0.093186744 -0.13795806
-0.061683804 0.0105568 0.0038143103 0.98446047 -0.12589405 -0.12243006
-0.059683606 0.022690501 0.0029037902 0.97195047 -0.20970909 -0.10646804
-0.058860101 0.024541402 0.0055608703 0.96209151 -0.21151909 -0.17216709
-0.062545106 0.00164001 0.00329086 0.99077648 -0.091275841 -0.10015505
-0.056641404 0.033305001 0.0042266003 0.94955146 -0.29312512 -0.11149106
-0.063041605 -0.00090281205 0.0019963302 0.99412251 -0.076955229 -0.076155327
-0.062868603 0.00037252801 4.5431203e-05 0.99300849 -0.072319329 -0.093296148
-0.062478103 0.0049978504 0.0021765002 0.9912945 -0.088196248 -0.097760342
-0.055787705 0.037171103 0.0028590001 0.9560985 -0.27359712 -0.10498405
-0.053690605 0.0433443 0.0034457 0.93300545 -0.33683518 -0.12666605
-0.063225105 -0.0018919901 -0.00153305 0.99817848 -0.05718283 -0.019263208
-0.063120499 -0.0047476403 0.00178258 0.99535745 -0.043410823 -0.085906148
-0.060010001 0.0199509 0.0038826501 0.96967047 -0.19511808 -0.14720605
-0.049159501 0.053776503 0.0039770301 0.84332138 -0.51726425 -0.14576507
-0.0636186 -0.0094452808 0.00098650204 0.97271949 -0.21497209 -0.087207347
-0.061846301 0.0105651 -0.0011418101 0.99254149 -0.11462806 -0.041516721
-0.060599204 0.019626401 -0.00019046801 0.9819805 -0.18262309 -0.048622821
-0.058745205 0.0271479 0.0017146401 0.96520549 -0.24449413 -0.092741646
-0.057416502 0.032449801 4.3743101e-05 0.95601749 -0.28904313 -0.049863521
-0.054839604 0.039600499 0.0037066501 0.94051349 -0.31810719 -0.11934306
-0.051159803 0.048520803 0.0057296702 0.90347147 -0.38966617 -0.17860709
-0.050156001 0.052566603 0.0014390701 0.88510346 -0.45676324 -0.089222044
-0.062223405 0.0088073108 0.00046257602 0.98922247 -0.14191106 -0.036082014
-0.059371401 0.024946 -0.00033159202 0.97093546 -0.23866811 -0.017990107
-0.051948603 0.047473501 0.0034492202 0.91756749 -0.37869719 -0.12107706
-0.063338101 -0.00643392 -0.00139709 0.99622446 -0.082338244 -0.027521215
-0.055827804 0.037700102 -0.00111539 0.9564665 -0.29056111 -0.027334211
-0.055089101 0.040094901 0.00054345402 0.94531745 -0.32330519 -0.043018423
-0.063067801 0.0024501202 -0.00161597 0.99649251 -0.076796629 -0.033269715
-0.052128002 0.047844801 0.000377385 0.92790049 -0.36751819 -0.06270083
-0.062575907 0.0063326205 -0.0030668902 0.99228245 -0.12394506 -0.0036859119
-0.062032603 0.0096790409 -0.00453931 0.99005145 -0.13553606 0.037804216
-0.061801001 0.013347701 -0.00197408 0.98981351 -0.14163107 -0.014503308
-0.061106902 0.015993601 -0.0020554801 0.98456347 -0.17395109 -0.019439107
-0.053714003 0.0439068 -0.00052917498 0.93709749 -0.34693718 -0.038519215
-0.063469104 -0.0044953399 -0.0044723605 0.99882549 -0.030078614 0.037996516
-0.060822804 0.0182762 -0.0043656803 0.98408747 -0.17445309 0.033749815
-0.058024105 0.030325102 -0.00236792 0.96631145 -0.25690711 0.015534308
-0.062811404 0.00265759 -0.0043214899 0.99626845 -0.068579733 0.052407824
-0.062656105 0.0054888702 -0.0058616605 0.99300748 -0.091673642 0.074387029
-0.054036304 0.042988002 -0.0041637802 0.94025445 -0.33818519 0.039417524
-0.050985299 0.050933205 -0.00072155503 0.91362548 -0.40654019 0.003685782
-0.044991203 0.0566242 0.0018249301 0.33136517 -0.94234747 -0.046675224
-0.063057505 -0.00077554607 -0.0062690303 0.99455547 -0.080898143 0.065693326
-0.061145201 0.015671 -0.0064901402 0.98396748 -0.15648609 0.085567847
-0.049419802 0.053902604 -0.0027542301 0.86590737 -0.50020427 -0.00085351238
-0.062644407 0.0014775101 -0.0077064605 0.99593645 -0.062814027 0.064537726
-0.059840806 0.0231815 -0.0042555602 0.97366148 -0.22465111 0.038926017
-0.056683801 0.034935702 -0.0049904804 0.9559955 -0.29052112 0.040877722
-0.047972303 0.055283502 0.00123207 0.62487125 -0.77928138 -0.047514822
-0.045934502 0.056691304 -0.0027357901 0.34978917 -0.9363535 -0.029861314
-0.058433902 0.028366301 -0.0060291504 0.96508247 -0.25684813 0.051439323
-0.048943102 0.054830603 -0.0055970605 0.78446734 -0.61352724 0.090526946
-0.062016502 0.0063117803 -0.0089388406 0.98316848 -0.11310306 0.14348806
-0.061069805 0.014328301 -0.008872441 0.98238748 -0.14920206 0.11248806
-0.058683604 0.026475402 -0.0085018203 0.96620947 -0.23493911 0.10603505
-0.062469203 0.0033567301 -0.010179 0.98250145 -0.098490447 0.15808509
-0.061985504 0.0095991008 -0.0075425203 0.98456049 -0.14472806 0.098465845
-0.060103003 0.02043 -0.0083793206 0.9751395 -0.19726609 0.10094205
-0.057242405 0.031183003 -0.0099435197 0.94893646 -0.27846113 0.14825906
-0.056713905 0.034047101 -0.0075899805 0.95482045 -0.28097013 0.096822843
-0.052310504 0.047678005 -0.0037143601 0.92070949 -0.38639319 0.054734729
-0.05553 0.038459003 -0.0047965501 0.95088148 -0.30705011 0.039319921
-0.060078003 0.0199033 -0.010393401 0.96411645 -0.17473909 0.19986509
-0.042096402 0.057329804 -0.00034556002 0.10841704 -0.9938525 -0.02242971
-0.062976703 -0.0045211902 -0.0085239802 0.99289548 -0.034569815 0.11386406
-0.059047204 0.023350101 -0.0107893 0.96451545 -0.21423309 0.15432505
-0.055271804 0.038263202 -0.0081722606 0.94730347 -0.30068812 0.11047406
-0.053786103 0.042839002 -0.00893318 0.93112946 -0.34427518 0.12030906
-0.062697902 -0.0012785001 -0.0104548 0.98936146 -0.052498523 0.13567907
-0.061571404 0.0090027004 -0.011759401 0.97976446 -0.12793106 0.15393706
-0.060250603 0.017156601 -0.0103991 0.97077447 -0.17095409 0.16844209
-0.054800902 0.038423304 -0.011019601 0.93954349 -0.29284313 0.17748909
-0.039042704 0.057154804 -0.00275065 -0.10271005 -0.99342245 -0.050626922
-0.060630202 0.010403601 -0.013940901 0.96999049 -0.14854006 0.19249809
-0.060774103 0.013126601 -0.013016401 0.9687385 -0.16063109 0.18906409
-0.058401503 0.026279701 -0.011260101 0.95002449 -0.24984112 0.1871741
-0.051150702 0.048881702 -0.0089138011 0.91475946 -0.38417518 0.12500006
-0.049824502 0.051420104 -0.011363801 0.88161248 -0.42776218 0.19945109
-0.061906304 -0.00075589702 -0.013597 0.97465146 -0.077451929 0.20989709
-0.061624404 0.0041773501 -0.013296501 0.97937346 -0.088548444 0.18162309
