# .PCD v0.7 - Point Cloud Data file format
VERSION 0.7
FIELDS x y z normal_x normal_y normal_z
SIZE 4 4 4 4 4 4
TYPE F F F F F F
COUNT 1 1 1 1 1 1
WIDTH 652
HEIGHT 1
VIEWPOINT 0 0 0 1 0 0 0
POINTS 652
DATA ascii
-0.0032436273 -0.050075278 -0.17839143 -0.80187428 0.58329952 -0.12946095
0.00015250249 -0.049227599 -0.18903239 -0.55855155 0.8030532 -0.2076692
-0.0011365179 -0.050610386 -0.18993513 -0.69491857 0.69516879 -0.18392837
-0.0025187265 -0.050526515 -0.18392105 -0.75284934 0.63908905 -0.15742981
-0.0047554583 -0.052905463 -0.17830294 -0.97979176 0.18939361 -0.064335503
-0.0037270996 -0.051305056 -0.18058044 -0.8647781 0.48675662 -0.12340084
-0.0020740246 -0.050595015 -0.18678336 -0.7164439 0.67770314 -0.16561282
0.0020379508 -0.050653659 -0.19908649 -0.49590492 0.84318721 -0.20764051
0.000188089 -0.051208235 -0.19708121 -0.55297375 0.80285847 -0.22279844
-0.0031056958 -0.052589741 -0.1891101 -0.83030456 0.53522009 -0.15535352
0.00087976578 -0.052789416 -0.20535135 -0.57804656 0.7992025 -0.16473706
-0.0032265401 -0.054742433 -0.19720638 -0.87684751 0.45726842 -0.14847624
0.0014309224 -0.053205222 -0.20895837 -0.51556158 0.83974433 -0.17037185
-0.0013185417 -0.054611932 -0.20582621 -0.71397978 0.68832761 -0.128215
-0.0020846885 -0.054847401 -0.2030638 -0.68958998 0.70510745 -0.16519736
0.0017488052 -0.06004893 -0.24435019 -0.77357692 0.62067592 -0.12783159
0.0010691374 -0.054653924 -0.21504691 -0.48570797 0.85527509 -0.18053567
0.00055741909 -0.053957522 -0.21088496 -0.64148587 0.7468223 -0.17536621
-0.0034840852 -0.056415465 -0.19928004 -0.9682734 0.21014242 -0.13523243
-0.0020166934 -0.056316726 -0.20906799 -0.74988157 0.63301921 -0.19226369
-0.00044504384 -0.054359142 -0.20799719 -0.64730269 0.74340689 -0.16836397
0.019442093 -0.059197295 -0.23486273 -0.80008149 0.58686811 -0.12432317
-0.052081499 -0.023750458 0.022298712 -0.37873822 0.87782615 0.29322287
0.00019086973 -0.054997925 -0.21370402 -0.5856126 0.79305863 -0.16768071
-0.0023726285 -0.057580378 -0.21203779 -0.89912146 0.41326135 -0.1442107
0.0013971191 -0.056658939 -0.2254599 -0.59284079 0.78282577 -0.18900923
-0.0023409077 -0.054435823 -0.20066158 -0.73655629 0.66003406 -0.14778687
0.001970595 -0.057673406 -0.23363122 -0.58505106 0.79099083 -0.17902426
0.0018194431 -0.057522926 -0.23130102 -0.62716377 0.76856226 -0.12640697
-8.5804684e-05 -0.058314972 -0.2265278 -0.7602036 0.63092899 -0.15498434
0.015725087 -0.046034236 -0.1475592 0.40653801 0.91362894 -0.0031671105
0.0043637622 -0.058006164 -0.23959872 -0.022722587 0.99758887 -0.065583497
0.0011178331 -0.059167109 -0.23578495 -0.68340409 0.71545374 -0.14520951
0.00010081811 -0.059136242 -0.23206091 -0.78101683 0.60646725 -0.14903368
-0.00093911227 -0.060116112 -0.22866926 -0.95511007 0.27822757 -0.10176031
-0.0010706468 -0.06001921 -0.22679968 -0.9731583 -0.21266845 -0.08795432
-0.030334795 -0.0025434722 -0.050488602 -0.45319501 0.77448446 -0.44134927
-0.0099958386 -0.02329186 -0.073431112 -0.56668043 0.49997854 -0.65490127
-0.0053465017 -0.043082457 -0.13541724 -0.60566753 0.76788139 -0.20862851
-0.00057929882 -0.06006296 -0.23078825 -0.76651865 0.63483626 -0.097124718
3.8402566e-05 -0.058738217 -0.22939327 -0.7382865 0.65362859 -0.16644447
-0.020631749 0.0017607955 -0.040556949 0.24562201 0.81407624 -0.52626097
0.014575992 0.00071657443 -0.03796766 -0.15697886 0.77805454 -0.60826766
0.010268707 0.00012676395 -0.037853323 -0.10282291 0.73904955 -0.66575837
0.014199355 -0.0053431233 -0.04512525 -0.29939032 0.76977599 -0.56374753
-0.013834795 0.0029086205 -0.032493472 -0.06735418 0.98544717 0.15607125
-0.024580309 0.0023931579 -0.037559908 -0.22460909 0.97365946 0.039231364
-0.0302536 -1.6023547e-05 -0.040392574 -0.50491631 0.86207807 -0.043379508
-0.029037388 0.00058025576 -0.038195152 -0.43274304 0.89951867 0.060004938
-0.032574475 -0.0013082254 -0.039309002 -0.52288383 0.85123783 -0.044581167
-0.033333402 -0.0022560416 -0.043247249 -0.56402045 0.81666559 -0.12222594
-0.033928495 -0.0021344521 -0.037297651 -0.51638442 0.85548049 0.03874509
-0.034726258 -0.0028087774 -0.033201929 -0.46473503 0.88380229 0.053998038
-0.033023246 -0.0018802927 -0.034026355 -0.47188562 0.87703854 0.090158843
-0.034638301 -0.0026853099 -0.038706556 -0.5849064 0.80969262 -0.047783021
-0.034921728 -0.0028933026 -0.035321701 -0.53501177 0.84478706 0.0099072885
-0.034038633 -0.0027288843 -0.03068231 -0.41910854 0.89914125 0.12607178
-0.037242949 -0.0043322877 -0.030477947 -0.49572831 0.86656493 0.057614956
-0.036931995 -0.0046720654 -0.026902277 -0.43186998 0.89374977 0.12124637
-0.036969464 -0.0041399654 -0.034357153 -0.54416126 0.83891165 -0.010796014
-0.038081743 -0.0051437863 -0.028677614 -0.47823349 0.87086517 0.11352298
-0.036047429 -0.0044455393 -0.025463834 -0.38011736 0.90841383 0.17405768
-0.03824475 -0.0054706973 -0.025327891 -0.46580943 0.87345231 0.14178641
-0.039357882 -0.0059089987 -0.02729206 -0.50061703 0.86339593 0.062696718
-0.038413174 -0.0057868063 -0.039626516 -0.59106565 0.79996049 -0.10346777
-0.039305184 -0.0058290828 -0.035942577 -0.62939751 0.77451479 -0.063139535
-0.039039526 -0.00556579 -0.033606175 -0.57528961 0.81763113 -0.022849936
-0.039220072 -0.0055084601 -0.030124942 -0.54998976 0.83454275 0.032413211
-0.040134393 -0.0063112862 -0.030711638 -0.58507997 0.81093144 -0.0085198022
-0.038608074 -0.0061650695 -0.040915325 -0.56228268 0.81120294 -0.16058905
-0.040160093 -0.006695467 -0.039571427 -0.46203533 0.88620871 -0.034036126
-0.040843926 -0.0068627312 -0.026319934 -0.50418139 0.85661459 0.10960659
-0.040988188 -0.0073741153 -0.036898203 -0.6622104 0.74807167 -0.043210756
-0.04017574 -0.0068742647 -0.03810003 -0.5984503 0.79486024 -0.10027584
-0.011273792 -0.022031134 -0.069066405 -0.91404217 -0.38689676 -0.121815
-0.010484697 -0.023481268 -0.068930022 -0.86591613 -0.4988746 0.036253855
-0.034724485 -0.0279922 0.044296429 -0.17499477 0.83973002 0.51403439
-0.043472908 -0.0085235741 -0.027200578 -0.61550397 0.78813404 -0.0006232647
-0.042297501 -0.0078434674 -0.025134373 -0.54273707 0.83604223 0.080440365
-0.041603036 -0.0077496213 -0.021828439 -0.5014205 0.86021996 0.092736818
-0.041987792 -0.0084209992 -0.018705854 -0.46546498 0.87544143 0.13017546
-0.043689508 -0.0089540556 -0.02458467 -0.58796841 0.80794936 0.038882829
-0.044174518 -0.0094011342 -0.021334106 -0.53180039 0.84389156 0.070967041
-0.045262448 -0.0099907154 -0.023360912 -0.61188924 0.79089278 -0.0090076486
-0.044730566 -0.010113016 -0.017323412 -0.51753801 0.84874642 0.10855823
-0.044134613 -0.0094523253 -0.03020055 -0.6120708 0.78454071 -0.099328585
-0.045293044 -0.010135171 -0.028073944 -0.58306873 0.81240427 0.0055781016
-0.043944132 -0.010571557 -0.012824651 -0.43597147 0.88336051 0.1720587
-0.046664957 -0.010548858 -0.027232256 -0.25449267 0.93464524 0.24834011
-0.008814103 -0.030801518 -0.087177552 -0.94114375 0.30776107 -0.13975926
-0.047028981 -0.011214243 -0.025791729 -0.29308826 0.94069791 0.17084426
-0.045631129 -0.010569288 -0.026095921 -0.58074194 0.81273019 0.047003102
-0.046518769 -0.011948511 -0.01255221 -0.48456213 0.86282629 0.14398395
-0.047221631 -0.011808002 -0.016892402 -0.55653036 0.82543862 0.0944767
-0.0087633636 -0.033978984 -0.095307395 -0.99179786 0.1015465 -0.077628337
-0.0089090494 -0.032223638 -0.091818415 -0.98597306 0.15755761 -0.05507993
-0.054902844 -0.023900229 0.017887248 -0.47265562 0.84200591 0.26004532
0.0093337884 -0.045178164 -0.15025485 -0.16887546 0.83537579 0.52309597
0.011440147 -0.045795511 -0.14837138 -0.24259421 0.86061722 0.4477576
-0.049155232 -0.014500021 -0.0074630999 -0.50394964 0.8496958 0.15508921
0.0097382339 -0.046418622 -0.14789383 -0.25507286 0.88019431 0.40024614
-0.05012155 -0.014613564 -0.012004144 -0.56811941 0.8137933 0.12239962
-0.050820757 -0.015305526 -0.0079152565 -0.56180447 0.81305903 0.15268134
0.010312447 -0.046670273 -0.14696337 -0.30883515 0.93675715 0.16464448
-0.051678702 -0.015587514 -0.010670802 -0.56004059 0.82541126 0.071074344
0.0082387021 -0.046926621 -0.14782076 -0.1463898 0.940319 0.30719894
-0.052281685 -0.01668448 -0.0072665922 -0.58179635 0.79879779 0.15308814
-0.0079857791 -0.039703581 -0.11273519 -0.99121851 0.10801796 -0.076282948
-0.052066565 -0.016249236 -0.0090665082 -0.66700184 0.73551387 0.1188655
-0.007701003 -0.041555136 -0.1175065 -0.91004562 -0.40759027 0.075419202
-0.02974149 -0.026801959 0.043563567 -0.12243503 0.90676057 0.40347981
0.020426979 -0.058766134 -0.23723353 -0.38849005 0.91465026 -0.11176552
-0.0069090948 -0.04523617 -0.13564461 -0.99861145 0.0011079577 -0.052677769
-0.0016836938 -0.05345184 -0.1993427 -0.67784977 0.70738703 -0.2003106
-0.0030326257 -0.053340428 -0.19230452 -0.81833225 0.55901963 -0.13352938
0.0061960476 0.0024806273 -0.033745825 0.011551645 0.92088175 -0.38967201
-0.010411032 -0.022036927 -0.072123028 -0.63399917 0.48217273 -0.60461187
-0.0091167251 -0.026465809 -0.079161428 -0.629403 0.63130945 -0.45310196
-0.0084848972 -0.028206639 -0.082728937 -0.65390354 0.6786148 -0.33450422
-0.0078812027 -0.034330621 -0.099927232 -0.6175015 0.74516439 -0.2518391
0.00059917028 -0.049705315 -0.19180596 -0.51921642 0.82972699 -0.20486176
0.0012304911 -0.051877469 -0.20271489 -0.59128386 0.78534186 -0.18336405
0.0077017858 -0.046368886 -0.14901192 -0.13969947 0.8321802 0.53662014
0.0067531858 -0.04676196 -0.14837103 0.0036569142 0.95838881 0.28544426
0.0036311811 -0.046940204 -0.14789447 0.061855085 0.94629431 0.31733587
-0.024435652 -0.0010837192 -0.025089739 -0.19029324 0.93152028 0.30993456
0.012856707 -0.00035094187 -0.038740255 -0.15463684 0.74910319 -0.64415276
-0.032661151 -0.0022456183 -0.045658171 -0.63905513 0.72744459 -0.24986792
-0.037590388 -0.0046365862 -0.036999978 -0.5847435 0.80456817 -0.1036625
-0.041196469 -0.006931684 -0.028011136 -0.58857298 0.807854 -0.030896539
-0.0069218148 -0.0437277 -0.13203481 -0.90706092 0.39946702 -0.13291948
-0.00048573758 -0.050793871 -0.19364762 -0.6316632 0.75674057 -0.16836362
-0.0019595558 -0.052616436 -0.19556133 -0.71916074 0.67454791 -0.16671537
-0.037633225 -0.0055086506 -0.042964276 -0.29483515 0.9488129 0.11325711
-0.00526773 -0.052776102 -0.17307609 -0.9636662 0.26710173 -0.0022436201
0.0050920136 0.0029478846 -0.032400221 0.042929929 0.99457943 -0.094707981
-0.050767753 -0.023840066 0.024012038 -0.35186628 0.87847686 0.32321748
-0.053963453 -0.024778871 0.022217253 -0.45552546 0.84212726 0.28865048
-0.013925364 0.0020821244 -0.029884925 -0.10415456 0.9475252 0.30223957
-0.0092588784 0.0029721248 -0.031454735 -0.04839886 0.98194981 0.18284708
-0.050943032 -0.025309516 0.027611295 -0.32687777 0.89499074 0.30355141
-0.019443102 0.0028453693 -0.034760393 -0.084555164 0.99412352 0.067601599
-0.055523854 -0.025445474 0.021710256 -0.45617294 0.83612669 0.30462971
-0.05496088 -0.025976801 0.023719054 -0.52021503 0.80180979 0.29407197
-0.020829508 0.0026878703 -0.035655711 -0.15015969 0.97792399 0.14531958
-0.024142452 0.0017638386 -0.033917855 -0.20503952 0.94631809 0.24988388
-0.023285788 0.0010942314 -0.031514272 -0.19462004 0.9363544 0.29217213
-0.026691595 0.0015392358 -0.037107363 -0.38663536 0.91476411 0.11713508
0.001027716 -0.056209784 -0.2230102 -0.58078671 0.79806739 -0.16054976
0.0022373896 -0.055098679 -0.22010258 -0.45096973 0.87914705 -0.15403868
-0.028908934 0.00037941342 -0.036584537 -0.39646733 0.90833116 0.13322631
-0.031022254 -0.00053640985 -0.036778033 -0.46200448 0.88442141 0.065967448
0.0005302169 -0.056277338 -0.22036056 -0.63327545 0.76190549 -0.13587928
-7.9098885e-05 -0.056204248 -0.21885389 -0.53461474 0.81645554 -0.21814747
-0.00021719867 -0.057629157 -0.22369292 -0.74852788 0.62955594 -0.20824568
-0.00045105361 -0.057226639 -0.22167128 -0.72776002 0.67708319 -0.10919981
-0.0012331224 -0.042053103 -0.15632103 -0.62049156 0.77961087 -0.08484073
-0.027209468 -0.00067356863 -0.028819241 -0.24817787 0.92683941 0.28174013
-0.0029143624 -0.043387227 -0.1544355 -0.72438365 0.68687516 -0.058921058
-0.036411185 -0.00415105 -0.040391508 -0.63499492 0.75828141 -0.14762038
-0.0020541153 -0.043745015 -0.15184052 -0.13613498 0.86537141 0.48228666
-0.03614334 -0.0037509499 -0.037526086 -0.58005446 0.81268883 -0.055447794
-0.0038614064 -0.052852392 -0.18605743 -0.87984073 0.45464796 -0.13847983
-0.0049993247 -0.04573727 -0.15349045 -0.82939601 0.54282731 -0.13206671
-0.0040514208 -0.044653352 -0.15169157 -0.60344321 0.76791316 0.21486428
-0.0037908212 -0.045246992 -0.15085864 -0.48222187 0.83813006 0.25495279
-0.0041594435 -0.045853108 -0.15651397 -0.83105105 0.53683901 -0.14546095
-0.033386111 -0.0030847187 -0.027227329 -0.37827459 0.90774977 0.18138264
-0.031291306 -0.0031123701 -0.023441654 -0.26822901 0.92967862 0.25249147
-0.033800103 -0.0038474398 -0.024243295 -0.33874387 0.92168534 0.18907589
-0.026986269 -0.0041984916 -0.017247105 -0.18350761 0.93497413 0.30356097
-0.005229672 -0.046086002 -0.15132369 -0.82929039 0.55879265 0.0054003275
-0.034291506 -0.0043571889 -0.022646522 -0.34519008 0.90864807 0.2349547
-0.034187105 -0.0050171306 -0.020199178 -0.31749555 0.92461967 0.21041867
-0.034378264 -0.0053965352 -0.01875484 -0.27957347 0.92358404 0.26235887
-0.037888736 -0.0058670738 -0.022683289 -0.41285038 0.89398521 0.17420138
-0.03688303 -0.0056568524 -0.021038083 -0.32825646 0.92682731 0.18231794
-0.026671244 -0.0069431402 -0.0090886615 -0.17497808 0.92480654 0.33781147
-0.039585575 -0.0068942304 -0.021094378 -0.39752766 0.90351564 0.16010082
-0.038686313 -0.0074803089 -0.016704673 -0.34191486 0.91369772 0.21966283
-0.040811688 -0.0071884417 -0.023759002 -0.44774255 0.88820183 0.10307838
-0.036160227 -0.0068357652 -0.015276738 -0.30163363 0.91514784 0.26743725
-0.037194967 -0.007834808 -0.013537399 -0.30488929 0.9176119 0.25501376
-0.027539445 -0.0095897876 -0.0019255759 -0.15443879 0.93026435 0.33280307
-0.043106906 -0.0095124738 -0.015852271 -0.44371116 0.87648576 0.18680003
-0.039398018 -0.0085513564 -0.013340972 -0.32210395 0.92001194 0.22322179
-0.041378383 -0.0085643362 -0.016311277 -0.37435535 0.90559155 0.19940688
-0.04149219 -0.009650439 -0.012089062 -0.36283869 0.9035092 0.22807926
-0.039211225 -0.010065564 -0.0078421338 -0.29754198 0.91555101 0.27062193
-0.046669707 -0.011336022 -0.023856696 -0.47966427 0.87702465 0.02740749
-0.048027396 -0.01148339 -0.02413661 -0.22181632 0.96062398 0.16733244
-0.044146344 -0.010234946 -0.015026392 -0.47486299 0.8624925 0.17496496
-0.042599842 -0.010508537 -0.010158806 -0.3755897 0.89912909 0.22472285
-0.047221143 -0.011686253 -0.022092579 -0.5228799 0.84972179 0.067604467
-0.045953277 -0.011368976 -0.014676113 -0.48638755 0.8645609 0.12634264
-0.048943527 -0.012614119 -0.020579094 -0.29660892 0.93928963 0.17250809
-0.046715122 -0.011267052 -0.019489437 -0.59605384 0.80178148 0.043210536
-0.04862364 -0.01288773 -0.01819976 -0.50270659 0.86135751 0.073145218
-0.040674374 -0.010956742 -0.0061451565 -0.29979673 0.92055267 0.25041112
-0.047816359 -0.01231102 -0.015456869 -0.54537117 0.83434665 0.080229953
-0.044774685 -0.011800637 -0.0087863421 -0.37843812 0.8995626 0.21811199
-0.038536519 -0.011775783 -0.0017962077 -0.23537062 0.9251377 0.29786223
-0.038109675 -0.012552437 0.001040947 -0.20654072 0.92532796 0.31797835
-0.047026586 -0.012602367 -0.010160675 -0.48792589 0.85708505 0.16533101
-0.044197898 -0.012518296 -0.0050547523 -0.34088656 0.90585858 0.25143141
-0.050113808 -0.013199114 -0.018038653 -0.17552049 0.9577834 0.22769402
-0.041182596 -0.012267727 -0.0026033539 -0.29117611 0.91652989 0.27420884
-0.050327946 -0.014000658 -0.015813885 -0.49434912 0.8639195 0.096243806
-0.049267117 -0.013585517 -0.013553036 -0.55240268 0.82277554 0.13376276
-0.040923297 -0.012742377 -0.00055206637 -0.26658776 0.9207409 0.28490037
-0.051221646 -0.014699981 -0.013718873 -0.49908939 0.85090387 0.16393076
-0.048684243 -0.014592124 -0.0051492127 -0.51325905 0.84535134 0.14814536
-0.047389459 -0.013656591 -0.0063093165 -0.44109389 0.87539679 0.19778189
-0.046982363 -0.014159204 -0.0031302513 -0.3867507 0.89949375 0.20331189
-0.045484081 -0.014098168 -0.0011466419 -0.31847975 0.91310626 0.25457549
-0.042069577 -0.014093863 0.0024467413 -0.27175921 0.91582566 0.29565394
-0.048158858 -0.014839053 -0.0020205744 -0.42612377 0.87704772 0.2218264
-0.046085868 -0.01509924 0.0016356292 -0.31735456 0.90941739 0.26878804
-0.050654151 -0.016142366 -0.0030570773 -0.52040768 0.83603126 0.17386357
-0.043796271 -0.015365934 0.0049649738 -0.28010151 0.91715962 0.28348261
-0.048143327 -0.015925825 0.0016016559 -0.43154112 0.87200981 0.23102376
-0.052343599 -0.017464943 -0.0024755984 -0.50662565 0.84660548 0.16306588
-0.050774693 -0.016829686 -0.00010604662 -0.48394403 0.85521388 0.18549454
-0.047624405 -0.01640862 0.0042813104 -0.34845209 0.89830738 0.26763034
-0.052775726 -0.017214974 -0.0052357833 -0.52056658 0.84532189 0.12017611
-0.054108448 -0.018337578 -0.0017742537 -0.30162647 0.93124199 0.20447691
-0.049970403 -0.017243436 0.0033128576 -0.43855774 0.87300307 0.21338621
-0.045456316 -0.01788198 0.011190398 -0.28510916 0.90809888 0.30670875
-0.053780191 -0.018721573 -0.00021815911 -0.43261796 0.88570249 0.16844556
-0.052100301 -0.01794688 0.0013742803 -0.50424999 0.84407824 0.1823862
-0.054869492 -0.018528266 -0.00056072831 0.10379586 0.97050482 0.21759565
-0.050527584 -0.017834503 0.0047253622 -0.42692652 0.87743086 0.21874613
-0.050248798 -0.018219519 0.00675883 -0.37878731 0.8899256 0.25407392
-0.030947145 -0.020083835 0.0257381 -0.12611958 0.9293099 0.34709916
-0.028277149 -0.020664139 0.027887754 -0.13153243 0.92214191 0.36380553
-0.04869071 -0.027496936 0.036543716 -0.30068251 0.873959 0.38182026
-0.054463297 -0.019457996 0.0022693456 -0.42385158 0.87985718 0.21494739
-0.052298032 -0.019171463 0.0063612438 -0.48643166 0.84862781 0.20788461
-0.048228487 -0.019235941 0.012551838 -0.31183356 0.90664548 0.28417408
-0.043575183 -0.026967939 0.038226303 -0.17121021 0.92280102 0.34514695
-0.055092055 -0.020047924 0.0041145124 -0.17647192 0.9534086 0.24468477
-0.053926568 -0.020105911 0.0051810388 -0.43227267 0.87366378 0.22327706
-0.046219729 -0.019859711 0.016514342 -0.26943421 0.912772 0.30700746
-0.05340647 -0.019882355 0.0064712544 -0.57244718 0.80517489 0.15491492
-0.051294725 -0.020424761 0.012960378 -0.39420217 0.88016057 0.26442993
-0.045975804 -0.020619491 0.01887718 -0.23542792 0.91375518 0.33109859
-0.055924274 -0.020791894 0.0071537499 -0.0235372 0.95141703 0.30700609
-0.054500319 -0.021086106 0.0081746886 -0.45684177 0.85959512 0.22889459
-0.052209128 -0.020406533 0.010601577 -0.4837684 0.84432495 0.23040067
-0.048885003 -0.020876491 0.01699302 -0.32131875 0.90270984 0.28612998
-0.046033975 -0.021411674 0.020907657 -0.22653519 0.91906971 0.32248065
-0.054118183 -0.022286631 0.013982238 -0.46839854 0.8520366 0.23374639
-0.050379198 -0.020819001 0.015070065 -0.35262603 0.89020562 0.28842655
-0.048562888 -0.021574903 0.019603422 -0.27891582 0.91035312 0.30571881
-0.05483548 -0.022175437 0.011121785 -0.5347718 0.81296176 0.23046324
-0.01719824 0.003006872 -0.035804886 -0.034668703 0.99934363 0.010552045
0.00059932197 -0.041356195 -0.15467483 -0.28606594 0.85841346 0.42578572
0.0010411849 -0.041094948 -0.15642144 -0.18114372 0.94580138 0.26953211
-0.0063516912 -0.019827636 0.029539553 0.0014717691 0.9325403 0.36106414
-0.034546565 -0.019921647 0.023488896 -0.14941926 0.93270093 0.32824367
-0.033394322 -0.020886984 0.02660827 -0.14339234 0.92737347 0.34556922
-0.023970222 -0.0093055507 -0.0010751098 -0.1525833 0.93425566 0.32231316
-0.03137942 -0.0081760725 -0.007587499 -0.15312785 0.92871189 0.33770868
-0.034171827 -0.0026423605 -0.041749254 -0.59863013 0.79127574 -0.12460198
-0.037544187 -0.0064128251 -0.019148357 -0.36114585 0.90541673 0.2231482
-0.025351724 -0.02783701 0.046048131 -0.1307154 0.77516478 0.61808884
-0.04535171 -0.026929621 0.03700804 -0.19852041 0.92698723 0.31825367
-0.039798245 -0.027050368 0.039725658 -0.16131218 0.92178553 0.35254911
-0.028399901 -0.027993962 0.045794129 -0.10954011 0.78975624 0.60356182
-0.053754643 -0.027801855 0.03149813 -0.43626264 0.84776443 0.30161422
-0.053528968 -0.028611261 0.03424444 -0.41103113 0.85349208 0.32032084
-0.051147848 -0.027867829 0.03514123 -0.35187995 0.86582279 0.35571384
0.0038212501 -0.041444574 -0.15418573 -0.0029037308 0.61298358 0.79009086
0.009399944 -0.043575648 -0.15223864 -0.11726483 0.69764268 0.70678473
0.011516841 -0.043722212 -0.15143153 -0.095774546 0.77436417 0.62545055
-0.0018984 -0.042577773 -0.15418649 -0.33907729 0.86086398 0.37939507
0.00066711305 -0.043095175 -0.15286425 -0.026451165 0.75798458 0.65173668
0.0017342815 -0.041488692 -0.15441872 -0.064220443 0.82739109 0.55794317
0.0037866554 -0.042712953 -0.15344703 0.027231269 0.65771157 0.75277811
0.00082262832 -0.044410989 -0.15146141 0.12721056 0.76713032 0.62875235
0.008235137 0.0019610149 -0.029241882 0.10226721 0.9409318 0.32278439
0.012076644 0.0016893707 -0.029899161 0.13042898 0.93839163 0.32001629
0.013690904 0.00061447336 -0.027808312 0.16533256 0.92747486 0.33534542
-0.0050023855 0.0024474245 -0.029122895 -0.027072297 0.94983196 0.3115885
0.004644955 0.0013579587 -0.027294565 0.089283347 0.93221563 0.35071841
0.0089326547 0.0012277815 -0.02727421 0.08536087 0.93139744 0.35385507
0.010257802 0.00055007974 -0.026135949 0.12631564 0.93210721 0.33944312
-0.0017648743 0.001912505 -0.027271695 -0.015548349 0.93882769 0.34403744
0.00030876437 0.0019926443 -0.027586291 0.046091698 0.93862963 0.34183466
0.011844279 0.00023094931 -0.025662584 0.12600201 0.94534177 0.30075482
-0.0080951285 0.0023961917 -0.029379075 -0.04650037 0.95274287 0.30019945
0.0020636604 0.0015188346 -0.026739322 0.046762943 0.93743098 0.34501815
0.0072472552 0.00072367786 -0.025893189 0.091936789 0.94562465 0.31199792
0.0092325835 -0.00024347524 -0.023526946 0.11344773 0.91891712 0.37778559
-0.01720795 0.0020235572 -0.030949628 -0.13020389 0.94228089 0.30847144
-0.0079045864 0.0016622061 -0.027174013 -0.051341236 0.93644476 0.34703922
-0.0040050112 0.0011130706 -0.025320159 -0.0043932502 0.93314976 0.3594625
-0.0013027904 0.0010617626 -0.025436634 0.0062053925 0.93452972 0.35583243
0.00378283 0.0011855892 -0.025593922 0.054418527 0.94147205 0.33267111
0.0042446246 0.00031752148 -0.023738373 0.078365415 0.93008256 0.35889614
-0.010170953 0.0019625332 -0.028466793 -0.080049232 0.94458729 0.31835186
-0.013310102 0.0017342875 -0.028767049 -0.083343908 0.93783766 0.33692056
-0.011559674 0.0012700747 -0.026936691 -0.077793218 0.9404943 0.33078659
0.011133286 -0.0007065633 -0.023172505 0.11039573 0.93406177 0.33962095
0.01182426 -0.00025346811 -0.024120087 0.13648736 0.92301267 0.35974979
0.012535024 -0.0013152499 -0.021765137 0.13945265 0.92888874 0.34310293
-0.025141045 0.0011390493 -0.033066113 -0.29022506 0.92550111 0.24334808
-0.021355713 0.00064424868 -0.028730899 -0.16248222 0.93772137 0.30704933
-0.016389314 0.0010610394 -0.027488176 -0.1169761 0.93906581 0.32322282
-0.0021819742 0.00063335436 -0.024236593 -0.022019032 0.94560134 0.32458335
0.0048987027 -0.00015931956 -0.022691147 0.06734468 0.92986244 0.36169258
0.0073981015 0.00015208233 -0.023823511 0.08347059 0.93844181 0.33520231
0.0077080657 -0.00072241487 -0.022159072 0.15200898 0.92509216 0.34799239
-0.02739479 0.0008014816 -0.035104904 -0.33560321 0.92329198 0.18682516
-0.018474674 0.00069985061 -0.027630765 -0.14360674 0.93992198 0.30971736
-0.0072305482 0.0011029312 -0.02570622 -0.049578495 0.94109696 0.33448398
-0.0072486079 0.00060198811 -0.024086764 -0.037080348 0.93833953 0.34372234
-0.0028495092 -4.1019353e-05 -0.022074673 -0.019645235 0.9408229 0.33833039
3.1533869e-05 0.0001800665 -0.023296284 0.052453715 0.92967618 0.36462563
0.0027357924 -0.00018571383 -0.02254305 0.026396064 0.93891877 0.34312665
0.0050283647 -0.0010623703 -0.020607548 0.05523897 0.94061679 0.3349475
0.0071220947 -0.00099548302 -0.020605935 0.094170302 0.93288678 0.34764242
-0.001463738 0.00018112328 -0.02242944 0.030883882 0.93749422 0.34662914
0.0002751571 -0.00035617594 -0.021403296 0.054137889 0.93842417 0.34121856
0.010389518 -0.0013494669 -0.020807678 0.098962747 0.93630791 0.33694944
0.010880078 -0.0021260926 -0.018961789 0.11234642 0.93139136 0.34625053
0.013726721 -0.0018809075 -0.020846058 0.13159509 0.93786496 0.32108107
0.015890615 -0.0027208563 -0.019350862 0.16365781 0.92534316 0.34199014
-0.015808539 0.00013993276 -0.024923768 -0.10120329 0.94296032 0.31715104
-0.0089458963 -0.0003041765 -0.021961154 -0.047447808 0.93729877 0.34528351
-0.0017893597 -0.00058458606 -0.021015275 0.014682515 0.92796773 0.37237278
-0.00039154541 -0.001136602 -0.019343738 0.024896244 0.94302922 0.33177865
0.0030483562 -0.0010561668 -0.019642079 0.046144985 0.94035876 0.33704165
0.014466843 -0.0022622128 -0.019790852 0.1266332 0.93723619 0.32488972
-0.028235864 0.00019431389 -0.033023227 -0.3357932 0.92425585 0.18164568
-0.026693763 0.00011082392 -0.030572772 -0.25262088 0.93347532 0.2545732
-0.023801755 0.0002632509 -0.029019503 -0.19051161 0.94102502 0.27960372
-0.0050952407 6.4417807e-05 -0.022718459 -0.011140708 0.94336975 0.3315576
-0.0039433409 -0.0011946845 -0.018997878 -0.010144636 0.93764281 0.3474538
0.0051759225 -0.0014922592 -0.018981326 0.082057349 0.9296152 0.35928151
0.0069150599 -0.0017235995 -0.019482983 0.10131176 0.92678571 0.36166999
0.0082803741 -0.0025831759 -0.017286837 0.096408941 0.92957312 0.35580915
0.0118868 -0.0028290723 -0.017356953 0.11497069 0.93814105 0.32660979
-0.028903261 -0.00099051138 -0.029289275 -0.28341192 0.92674297 0.2466293
-0.024313014 -0.00035789036 -0.027326973 -0.20421913 0.93362808 0.29433671
-0.012595187 0.00024646273 -0.024098951 -0.086247444 0.94408792 0.31821451
-0.010661967 -0.00013017833 -0.022727491 -0.066263273 0.94188684 0.32933146
-0.011226793 -0.0011256097 -0.019962665 -0.050478905 0.93515515 0.35062462
-0.0062128943 -0.00060597359 -0.020395197 -0.036914483 0.93815356 0.3442474
-0.0072415569 -0.0011690028 -0.019587258 -0.049243785 0.93229419 0.35833439
0.013149491 -0.0033762096 -0.016010411 0.12203252 0.92947543 0.34811586
0.015711868 -0.0035420367 -0.016969658 0.15793696 0.93415987 0.32000363
-0.029870752 -0.00080378685 -0.031250376 -0.35599878 0.91933233 0.16761255
-0.021587286 -0.00047384555 -0.025657717 -0.15741223 0.93698025 0.31191409
-0.018076219 -0.00038081274 -0.023936171 -0.14525737 0.93937004 0.31062061
-0.012996053 -0.0010352269 -0.020589244 -0.086258337 0.93943048 0.33170918
-0.0016084504 -0.0018308153 -0.017149098 0.028141225 0.93353838 0.35737252
0.0014448049 -0.0022149596 -0.016756976 0.033929616 0.93119776 0.36293316
0.007102638 -0.0020825926 -0.017814748 0.090103097 0.93442029 0.34458834
-0.030989332 -0.00091389898 -0.033305105 -0.41801181 0.89967793 0.12588377
-0.031073226 -0.0014167456 -0.030385839 -0.36643869 0.91463643 0.17077455
-0.016161777 -0.00063606893 -0.022528822 -0.11187348 0.93554741 0.33501723
0.0036501822 -0.0023405154 -0.01679918 0.034014352 0.95295864 0.30118755
0.0041897548 -0.0028515458 -0.015470123 0.098116487 0.91804826 0.38413742
0.0087180464 -0.003197192 -0.015340495 0.089205958 0.93398798 0.34599099
-0.032559134 -0.0020771907 -0.0313407 -0.43105239 0.89575303 0.10872628
-0.032630324 -0.0022061432 -0.02951904 -0.40145493 0.9021818 0.15780687
-0.031161545 -0.0020343836 -0.027775267 -0.30493179 0.92537349 0.22516988
0.0030023465 -0.0025615876 -0.015352496 0.03729387 0.93485099 0.35307768
0.0066607581 -0.0031434351 -0.015160665 0.091515556 0.9367981 0.33769107
0.021325512 -0.0057662348 -0.013791217 0.21233344 0.92738152 0.30802447
0.024483569 -0.0059788586 -0.01552519 0.2667807 0.91286671 0.30903617
-0.028561048 -0.001877835 -0.025675535 -0.23125111 0.9359076 0.26570788
-0.021687351 -0.0020296902 -0.021028098 -0.14946404 0.9381054 0.31244141
-0.00012109315 -0.0032865868 -0.013914262 0.016909037 0.93701106 0.34889168
0.0040736436 -0.0033309206 -0.013696342 0.051896013 0.94333488 0.3277607
0.017346133 -0.0050680973 -0.01343085 0.16792735 0.92372745 0.34428054
0.017664591 -0.0056794854 -0.011688732 0.17259352 0.93130434 0.32075649
-0.023571182 -0.00195717 -0.02213257 -0.17179437 0.93503004 0.31017166
-0.013434101 -0.0025371695 -0.016722636 -0.070339456 0.93586373 0.34527168
-0.028674155 -0.0025934335 -0.023511546 -0.19641231 0.93607819 0.29185778
-0.018923154 -0.0023725249 -0.018821148 -0.11493704 0.93715745 0.32943332
-0.014826993 -0.0023508815 -0.01752134 -0.09681493 0.93457711 0.34233552
-0.010432487 -0.0022501224 -0.016936801 -0.049292766 0.93652803 0.34711158
0.018263388 -0.0060407976 -0.010921459 0.17644499 0.92908657 0.32506347
0.022174526 -0.0064888843 -0.012043034 0.22623487 0.92335695 0.31021085
-0.025111565 -0.0026625532 -0.020728419 -0.1734869 0.94367355 0.28175068
-0.010649304 -0.0034885763 -0.013694648 -0.054791413 0.94340515 0.32708642
0.0019873318 -0.0036502162 -0.013064682 0.040438019 0.93297803 0.35765588
0.0042572953 -0.0041335411 -0.011759126 0.038069732 0.91716886 0.39667746
0.0075655719 -0.0044230781 -0.011883758 0.085256711 0.92456973 0.37135309
-0.020858822 -0.0027019465 -0.018290168 -0.13772242 0.93716723 0.32054797
-0.0091677047 -0.0034160872 -0.013397191 -0.044450924 0.94142032 0.33429447
0.00270591 -0.0046259742 -0.010933436 0.067755692 0.92406958 0.3761723
0.020843914 -0.0068951603 -0.010067748 0.22034048 0.91362882 0.34166282
-0.028556988 -0.003005361 -0.021848934 -0.19606049 0.93531734 0.29452121
-0.024749573 -0.0031084707 -0.019128155 -0.17391358 0.93454611 0.31044891
-0.016188726 -0.0030862982 -0.015817419 -0.10150871 0.93926656 0.32783425
-0.015078353 -0.0036248192 -0.01403398 -0.075292774 0.93571353 0.34463352
-0.010621912 -0.004209992 -0.01154026 -0.044183273 0.93358332 0.35562775
0.0019904273 -0.0048943306 -0.0098140724 0.061096616 0.93231505 0.35645023
0.006297918 -0.0052796695 -0.0095069902 0.091479689 0.93795091 0.33448556
0.018563839 -0.0068151755 -0.0090855351 0.15152243 0.91960877 0.36243868
-0.023866083 -0.0036792108 -0.017162558 -0.16167369 0.93616426 0.31218463
-0.013280038 -0.0036178795 -0.013671125 -0.076275498 0.94077283 0.33034754
-0.0035073247 -0.0044320808 -0.010556162 -0.0078682518 0.93657702 0.35037479
0.00065422041 -0.0040856036 -0.011128432 0.051406596 0.92442501 0.3778846
0.004442296 -0.0051824362 -0.0094987918 0.037832703 0.93842125 0.34341702
0.0064597055 -0.0060817245 -0.0073828758 0.089243643 0.93483484 0.34368655
0.0094337491 -0.0066003455 -0.006668007 0.10176082 0.92520678 0.36556554
-0.032348391 -0.0045963973 -0.019576114 -0.24726257 0.92648917 0.28368998
-0.029592631 -0.0040307171 -0.019456424 -0.20459324 0.93059689 0.30353245
-0.020304196 -0.0035556108 -0.015921786 -0.11283147 0.94055784 0.32034507
-0.019535169 -0.004160394 -0.013821064 -0.10633237 0.94096911 0.32135904
-0.0084759127 -0.0043508653 -0.010747078 -0.044962734 0.9297635 0.36540288
-0.0023512228 -0.0051445714 -0.0088511594 0.027876442 0.92837971 0.37058747
-0.00041003071 -0.0055070664 -0.0077491524 0.044087652 0.94483173 0.32457718
0.00500284 -0.0055783284 -0.0077801337 0.059557308 0.95425874 0.29299176
0.011525263 -0.006545803 -0.0074488455 0.10348412 0.92851913 0.35657319
-0.029573889 -0.0047119623 -0.01731943 -0.18922117 0.94276339 0.27457887
-0.012962879 -0.0043881177 -0.011048492 -0.070485048 0.93692589 0.34234884
0.0010826502 -0.0061613889 -0.0064787786 0.069657363 0.93306702 0.35289472
0.0032583894 -0.0059890649 -0.0069586057 0.017711462 0.93470311 0.35498914
0.0050757667 -0.0060177254 -0.0066554444 0.081311889 0.90586096 0.41569838
0.0082326252 -0.007172788 -0.0048152525 0.062800147 0.93352723 0.35296458
-0.026011573 -0.0047435579 -0.014998396 -0.16753544 0.93158066 0.3226302
-0.023193456 -0.0042801965 -0.014568169 -0.1637014 0.93490356 0.31489402
-0.018188737 -0.0049372227 -0.011176327 -0.098707907 0.93157583 0.3498919
-0.014879384 -0.0050141816 -0.010340421 -0.088457286 0.93246508 0.35026434
-0.0013254303 -0.0061223968 -0.0057012779 0.043022238 0.92869151 0.36835048
0.0050476557 -0.0067228153 -0.0052949134 0.051366255 0.9163956 0.39696547
0.0068124956 -0.0065172808 -0.00591793 0.080911838 0.9362244 0.34196222
-0.012117628 -0.0057856524 -0.0073554805 -0.051366303 0.9394086 0.33893064
-0.013229505 -0.0053567193 -0.0090095885 -0.061568089 0.93005109 0.36223671
-0.00968342 -0.0056833485 -0.0078079547 -0.046387594 0.93296742 0.35696054
-0.0037551012 -0.0054490319 -0.007552213 0.010080723 0.93951952 0.34234843
0.011059756 -0.0077044829 -0.004341491 0.12241099 0.93643183 0.32880396
-0.030167047 -0.0052124402 -0.015794838 -0.20729402 0.92797452 0.30966678
-0.024824537 -0.0052789249 -0.013284232 -0.18017122 0.93451422 0.30695683
-0.0027168673 -0.0069569401 -0.0039696228 0.018737925 0.92583889 0.37745509
0.0091902995 -0.0073678694 -0.0041496493 0.093694493 0.93246603 0.34889743
-0.035103716 -0.0062278062 -0.016660396 -0.27703476 0.92942286 0.2437744
-0.02802274 -0.0058788261 -0.012757419 -0.17919949 0.93727446 0.29900676
-0.022564901 -0.0050402712 -0.012205775 -0.12842198 0.93173879 0.33966404
-0.0083077177 -0.0063802171 -0.0053891074 -0.049272131 0.92961115 0.36523476
-0.0046738237 -0.0069648125 -0.0036567503 -0.011781434 0.93320727 0.35914671
0.0035122887 -0.0072594141 -0.0038469115 0.05972261 0.93516827 0.34913403
0.0053843413 -0.0082320599 -0.0013942724 0.064143889 0.92972487 0.36262697
-0.022896109 -0.0061381501 -0.0098266033 -0.10891457 0.9312166 0.34781364
-0.018496852 -0.0059960061 -0.0084304279 -0.097552925 0.93515873 0.34053287
0.0016373009 -0.0068910467 -0.004493976 0.036774892 0.93432945 0.35450983
-0.00012066885 -0.0069028614 -0.0042654146 0.046480667 0.91672111 0.39681613
0.0069768657 -0.0076882197 -0.0031620509 0.052705828 0.93515193 0.35030529
0.0083592255 -0.0085390871 -0.0013669031 0.063141271 0.93261099 0.35531813
-0.032693125 -0.0058231321 -0.01621937 -0.22667873 0.92725062 0.2980336
-0.025638776 -0.0062049413 -0.010150207 -0.15169832 0.93542856 0.31931511
-0.021234972 -0.0066203834 -0.0076043638 -0.11680631 0.93606055 0.33188534
-0.015474606 -0.006389142 -0.0067574568 -0.080170192 0.93559432 0.34385613
-0.0040808711 -0.0078407014 -0.0013450788 0.017863067 0.93038064 0.36616063
-0.00079468882 -0.0077573485 -0.0022015315 0.04103246 0.93661159 0.34795976
0.0029908505 -0.0078842212 -0.0018700069 0.046771508 0.93239641 0.35839972
0.0090615144 -0.0088614393 -0.00054254796 0.080299258 0.94055802 0.33000535
-0.029859899 -0.0068783714 -0.010662951 -0.18995877 0.92915481 0.31715623
-0.02330018 -0.0072468305 -0.0065157167 -0.11802535 0.93411916 0.33688629
0.0020737879 -0.0086651044 -8.4659696e-06 0.061537605 0.93452358 0.35054195
0.0059978119 -0.0092378166 0.0014263099 0.032957435 0.9390704 0.34214255
-0.000166446 -0.0083210832 -0.00051302812 0.02690836 0.94511384 0.32563302
-0.03534925 -0.0082482984 -0.010183586 -0.23129664 0.92833453 0.2910291
-0.032309484 -0.0074634724 -0.010835652 -0.20632844 0.93154269 0.29942924
-0.019078823 -0.006898554 -0.0061448808 -0.099672563 0.9331339 0.34543821
-0.0082732644 -0.0079771169 -0.0012251383 -0.027056172 0.93641359 0.34985504
-0.0022886689 -0.0083557619 -6.7753652e-05 0.00051211723 0.94222844 0.33497235
-0.00013335142 -0.0086251907 0.0007622437 0.038173266 0.91949064 0.39125535
0.0007676892 -0.0092653083 0.0019976029 0.03429015 0.92929035 0.36775622
0.0038381945 -0.0093021281 0.0015248024 0.049682368 0.93615836 0.34805208
-0.032187063 -0.0079619251 -0.0087819733 -0.21386394 0.93147081 0.2943216
-0.0062440261 -0.0084401425 -0.00016019656 -0.0085502379 0.93629056 0.35112366
0.0054841051 -0.0099497419 0.002670252 0.065413795 0.92720407 0.36880162
0.0086606732 -0.0095047504 0.0016963888 0.073713511 0.92792338 0.36541155
-0.03826594 -0.0085188849 -0.011782492 -0.28601664 0.92051047 0.26618782
0.01030237 -0.010379486 0.003389173 0.10146618 0.91722125 0.38524121
-0.026012646 -0.0080094673 -0.0053202664 -0.15341955 0.93483323 0.32023472
-0.017955026 -0.0085607786 -0.0012072222 -0.087040335 0.93267494 0.35006058
-0.0096579855 -0.0089177452 0.0011312546 -0.044692166 0.93514961 0.35142398
-0.0051008179 -0.0093285237 0.0023818645 0.021264754 0.92403287 0.38172251
-0.001491915 -0.009437779 0.0021200457 0.012469952 0.93400782 0.35703629
0.0009673743 -0.010488296 0.0047979858 0.046431437 0.92849964 0.36842051
0.0030098988 -0.0095319944 0.0025018882 0.048287388 0.93716115 0.34554079
0.0074859229 -0.01054232 0.0040754504 0.046012934 0.92753565 0.37089276
-0.027885348 -0.0086866366 -0.0044118664 -0.16874567 0.92485988 0.34082273
-0.020963086 -0.0082392301 -0.0031371911 -0.10526488 0.93764269 0.33128026
-0.0051177633 -0.0099758953 0.003950411 -0.0027119287 0.94856936 0.31655943
-0.0035086987 -0.0099507989 0.0044050841 0.0019160405 0.95435596 0.29866716
0.0048174621 -0.010282365 0.0041628992 0.062185276 0.93206853 0.35690638
0.0093039665 -0.010945639 0.004768922 0.075819679 0.93008018 0.35944846
-0.019460356 -0.0085126478 -0.0019188328 -0.10175555 0.93667781 0.33508423
-0.016786883 -0.0098432247 0.0024670772 -0.077948861 0.9347232 0.34672403
-0.015608812 -0.0087224431 -0.00040220874 -0.070386924 0.93338877 0.35189775
0.0014423612 -0.010889543 0.0060060001 0.033827178 0.93181777 0.361348
0.006516044 -0.01100797 0.0058205226 0.074009269 0.9310177 0.35739279
0.0080503961 -0.011679561 0.0074203694 0.084308527 0.93144071 0.35399342
-0.03640518 -0.009051769 -0.0085811457 -0.24158625 0.92389458 0.29674217
-0.031067712 -0.0090620294 -0.0052047158 -0.16696681 0.92859668 0.3314082
-0.022882605 -0.0098169912 0.00084436079 -0.098712303 0.93059695 0.35248598
-0.021369293 -0.0094462493 0.00017913811 -0.080533274 0.93392611 0.34827784
-0.0044639129 -0.010467924 0.0054308218 -0.010095648 0.92865402 0.37081102
-0.001272075 -0.010323256 0.0050356896 0.038813159 0.92943418 0.36694226
-0.036485232 -0.0099492148 -0.0057602399 -0.22732474 0.92960173 0.2901122
-0.03558369 -0.010237945 -0.0042152973 -0.18861701 0.94101781 0.28090951
-0.026442679 -0.0098499646 -0.00078930112 -0.15290973 0.93736833 0.31298605
-0.018563675 -0.0093516242 0.00056014711 -0.094653033 0.92948383 0.35651305
-0.015451551 -0.010396198 0.0039158072 -0.050145764 0.93619943 0.34787512
-0.0023069428 -0.011293557 0.0072241789 0.020084128 0.93128657 0.36373466
0.0030149273 -0.011361793 0.0069037406 0.053138331 0.93536997 0.34965762
0.01036242 -0.012717499 0.0092419805 0.094592422 0.92124403 0.37730974
-0.033312272 -0.0094223246 -0.0053340346 -0.18572056 0.92762935 0.3240568
0.00090604444 -0.011523684 0.0079636695 0.019151974 0.94397163 0.32947189
0.0056680464 -0.011790815 0.0076962267 0.067815594 0.93003142 0.36116961
-0.033158805 -0.010193635 -0.0030349207 -0.15651518 0.93194062 0.32709444
-0.018627336 -0.010234154 0.0027663386 -0.10219201 0.93278241 0.34565142
0.0074215704 -0.01242353 0.0088603832 0.066091843 0.92615157 0.37131685
0.010964118 -0.013670423 0.011369738 0.084644206 0.92667729 0.36620435
-0.035379745 -0.010686894 -0.0023241928 -0.18339586 0.92580169 0.33054233
-0.03109055 -0.010450201 -0.0011431131 -0.17120166 0.93354607 0.31493285
-0.028613716 -0.010731771 0.00092772109 -0.14986271 0.9353894 0.32029495
-0.027367298 -0.011155091 0.0026398904 -0.13845156 0.92925429 0.34251812
-0.020619474 -0.010621457 0.0033479773 -0.085416332 0.9330914 0.34935024
-0.015738636 -0.010878216 0.0054211775 -0.063401178 0.93531394 0.3480936
0.0023014471 -0.012217681 0.0098268054 0.045561012 0.92962188 0.36568871
0.0059195748 -0.01301816 0.011081208 0.079412907 0.92806852 0.36384517
0.013413114 -0.01395282 0.011529435 0.1119575 0.92157191 0.37171471
0.0081714196 -0.013302769 0.011039135 0.083910599 0.92669976 0.3663165
-0.049197961 -0.01410031 -0.0098224198 -0.54610264 0.8306452 0.1086337
-0.038599815 -0.027659601 0.042332198 -0.21077822 0.86339766 0.45838618
-0.038602944 -0.010983777 -0.0040184804 -0.26527658 0.91656631 0.29922497
-0.036118969 -0.011506901 -0.0008997824 -0.20243116 0.92002583 0.33552232
-0.02444439 -0.010940803 0.0032488964 -0.11284096 0.92478442 0.36337543
-0.026123974 -0.011858206 0.0049013644 -0.1150426 0.93681926 0.33035719
-0.021068038 -0.011559652 0.0058726701 -0.098323867 0.93302041 0.34613025
-0.014890254 -0.012005949 0.0084455451 -0.067305155 0.92214841 0.38093743
-0.0036571014 -0.012127189 0.009643591 0.0078583853 0.92966557 0.36832234
-0.0013182216 -0.012269946 0.0098978225 0.0033549161 0.93397355 0.3573277
0.0031064996 -0.012751387 0.010800683 0.061507348 0.92532057 0.37416533
-0.034253672 -0.011553534 6.4075321e-05 -0.18104944 0.92678952 0.3290641
-0.032298449 -0.01136583 0.0010535967 -0.18374929 0.93089134 0.31571928
-0.0015322062 -0.012775964 0.011651162 0.026512768 0.93389869 0.35655472
0.0074784332 -0.013870939 0.012758602 0.082809247 0.92302924 0.37571365
0.004281247 -0.014057518 0.013793667 0.081104025 0.92377412 0.37425193
-0.034016762 -0.012620701 0.003509782 -0.1849875 0.92479533 0.33246693
-0.030434996 -0.011718484 0.0028734084 -0.16422743 0.92701453 0.33715636
-0.0090857977 -0.012958863 0.011894979 -0.04264459 0.92185348 0.38518646
-0.0038757767 -0.013296238 0.012422186 -0.0091116438 0.93539619 0.35348552
0.0003529003 -0.013170215 0.011777665 0.052706033 0.92365086 0.37959468
-0.0014040177 -0.014008689 0.014458369 0.039136924 0.9301188 0.36516869
0.0030524724 -0.013740011 0.013160001 0.033121161 0.93104714 0.36339408
0.0067515252 -0.014568843 0.014462497 0.078927018 0.93207389 0.35356748
-0.035215762 -0.012528985 0.0024957098 -0.18124633 0.92569852 0.33201349
-0.028468585 -0.012167592 0.0051527712 -0.14057733 0.93028736 0.338828
-0.02095327 -0.013096523 0.010006667 -0.10061283 0.93087494 0.35121214
0.0030806502 -0.01473881 0.015937215 0.048031822 0.93385708 0.35440794
0.014145635 -0.015453655 0.014764089 0.12535548 0.91921395 0.37327296
-0.030176606 -0.013240707 0.0071236244 -0.16760509 0.9239648 0.34380034
0.00060066389 -0.014414662 0.01502297 0.034776513 0.93397236 0.35565037
-0.02491227 -0.012349924 0.007050816 -0.11732781 0.93200713 0.34292558
-0.044011451 -0.01406003 0.00051485328 -0.29728514 0.91238183 0.28139299
-0.027415462 -0.013876979 0.01005495 -0.12595819 0.93737781 0.32474363
-0.028475717 -0.013132326 0.0074795666 -0.15010369 0.92430472 0.35089988
-0.023772338 -0.01322307 0.0094464542 -0.092693239 0.93043125 0.35455137
-0.011757319 -0.01407436 0.014367414 -0.030412424 0.93419707 0.35546041
-0.0095362645 -0.014389686 0.015161907 -0.035172958 0.93956286 0.34056649
-0.034182094 -0.013913947 0.0070356699 -0.17741664 0.9259069 0.33349767
-0.011062962 -0.01482901 0.016233031 -0.031762861 0.92855525 0.36983395
-0.037146389 -0.014040515 0.0055562481 -0.18033203 0.93258923 0.31266379
-0.025114814 -0.014035679 0.011682474 -0.10009476 0.93108976 0.35079059
-0.021089865 -0.014124967 0.012658581 -0.089681841 0.93153191 0.35242945
-0.014709244 -0.014554173 0.014992645 -0.063753195 0.93169278 0.35761034
-0.040085167 -0.014042067 0.0038905756 -0.22028008 0.92454332 0.31096196
-0.032909933 -0.014586153 0.0092282631 -0.15252413 0.93358082 0.32429045
-0.023692774 -0.014235944 0.011989049 -0.086390182 0.93557 0.34241292
-0.039581224 -0.014735701 0.0067704017 -0.20681082 0.92206132 0.32715935
-0.030567264 -0.014168456 0.0094953245 -0.1699411 0.93593979 0.30844384
-0.027551081 -0.014855384 0.012580842 -0.12566511 0.91959012 0.3722409
-0.022705922 -0.014651214 0.013916438 -0.091208696 0.93144691 0.35226217
-0.014253011 -0.015056441 0.016654359 -0.058065727 0.93566829 0.34807214
-0.013085612 -0.015695024 0.018330274 -0.028938819 0.92769843 0.37220836
-0.042114906 -0.015536939 0.0068260604 -0.24168932 0.91985667 0.30895147
-0.038199864 -0.014912116 0.0077132545 -0.17099054 0.91735452 0.35947728
-0.037088562 -0.015509461 0.0095880125 -0.19689287 0.93067849 0.30833697
-0.03463475 -0.015137554 0.010347215 -0.17079563 0.93783486 0.30215195
-0.029299706 -0.01463781 0.012121644 -0.14477201 0.92271632 0.35726264
-0.031400565 -0.0149383 0.011272461 -0.17061161 0.93235761 0.31875056
-0.030058917 -0.015399515 0.012830527 -0.1372755 0.91305739 0.38403478
-0.024915008 -0.015086294 0.014107739 -0.11424012 0.92363942 0.36584225
-0.013098253 -0.016286999 0.019623421 -0.027861184 0.93104607 0.36383808
-0.01035106 -0.016133994 0.019485217 -0.042846814 0.93853289 0.34252191
-0.03200807 -0.015853515 0.013788042 -0.15129212 0.92734224 0.34226915
-0.029361259 -0.015911974 0.014761706 -0.12165139 0.93589264 0.33061597
-0.022924682 -0.015738081 0.016319256 -0.11132136 0.92891598 0.35316232
-0.0020363755 -0.017062064 0.022455029 0.029787064 0.93428624 0.35527873
-0.044138703 -0.016344991 0.0076150224 -0.24191417 0.92543131 0.29164258
-0.041541114 -0.016165363 0.0093641356 -0.20293841 0.93374527 0.29485032
-0.039614871 -0.015716994 0.0087047154 -0.18424377 0.92023063 0.34529832
-0.016541494 -0.016058065 0.018979488 -0.053454652 0.93386555 0.35360828
-0.0095083434 -0.016596427 0.020984527 -0.038769282 0.93500251 0.35251707
8.9953835e-05 -0.017485028 0.02309397 0.050800674 0.93034047 0.36316252
-0.045975167 -0.017002029 0.0082865022 -0.31022987 0.90702319 0.28472334
-0.03756753 -0.016444327 0.012647388 -0.19025344 0.92377675 0.33232698
-0.020938035 -0.016279643 0.01850044 -0.093087271 0.92771739 0.36149159
-0.0025787707 -0.018621681 0.026204003 0.0261837 0.92383176 0.3819035
0.0026841199 -0.018137416 0.024422137 0.05101664 0.92666852 0.37240252
-0.040450301 -0.016532242 0.010980343 -0.19363497 0.92865419 0.31639832
-0.03519382 -0.017000111 0.014912229 -0.17560752 0.92304188 0.3422817
-0.02427613 -0.016938424 0.019157561 -0.10113961 0.93281287 0.34587869
-0.013270864 -0.017104952 0.022000609 -0.046091635 0.94034845 0.33707777
-0.043883897 -0.017021375 0.010108544 -0.24099493 0.91777015 0.31562698
-0.042945433 -0.017540799 0.012189258 -0.21646641 0.92074126 0.32462123
-0.010430767 -0.017676139 0.023713917 -0.021268785 0.93206662 0.3616637
-0.00044808845 -0.019271931 0.027588852 0.032662168 0.93204039 0.36088076
-0.048230495 -0.017350279 0.0064143878 -0.34401861 0.89994919 0.26785019
-0.0029564812 -0.019524995 0.028264269 0.023995031 0.93458384 0.35493413
-0.034233138 -0.017572727 0.017488461 -0.16204931 0.92824936 0.3348048
-0.026404226 -0.017717399 0.0205562 -0.11435397 0.93022346 0.34872416
-0.024309894 -0.017684788 0.021411521 -0.10344724 0.93163067 0.34837332
-0.019338189 -0.017834598 0.023065606 -0.053410683 0.93142062 0.36000559
-0.032138102 -0.028177036 0.045261398 -0.13997102 0.83996147 0.52428401
-0.052935015 -0.028828336 0.035388045 -0.38369924 0.82204396 0.42073682
-0.041111514 -0.018266713 0.015476641 -0.19676363 0.92686647 0.31969297
-0.03869706 -0.017409546 0.014396332 -0.18301849 0.92456901 0.33418164
-0.021788271 -0.018807078 0.02511568 -0.09610711 0.93490165 0.34164804
0.0032326647 -0.02029267 0.030198174 0.062507778 0.9305954 0.36067423
-0.050782572 -0.018973641 0.0085119344 -0.41347736 0.87540656 0.2504012
-0.039167635 -0.018817808 0.018055705 -0.18952614 0.92727667 0.32286051
-0.029598892 -0.019103551 0.023192694 -0.1123856 0.93421078 0.33855659
-0.022899136 -0.018437296 0.023525082 -0.10653394 0.92921466 0.35385272
-0.036869895 -0.01814794 0.017509513 -0.17697562 0.93011856 0.32180768
-0.025210286 -0.019320369 0.025230553 -0.11101516 0.93742275 0.33002302
0.00044872539 -0.020224838 0.030110626 0.034842305 0.92604381 0.37580553
0.0023133545 -0.020900736 0.031443406 0.050465945 0.91577655 0.39850652
0.0042716884 -0.02110637 0.031689767 0.048883989 0.92936683 0.36590803
-0.048706144 -0.018688679 0.010115008 -0.33316523 0.9003799 0.27985346
-0.046669595 -0.019361755 0.014586888 -0.29305792 0.90805137 0.29926717
-0.037678123 -0.019119382 0.019986786 -0.16734344 0.92765182 0.33385503
-0.034337651 -0.018681632 0.020138461 -0.15523021 0.92497855 0.34687078
-0.002107905 -0.020375293 0.030764112 0.023896147 0.93196946 0.36174992
0.0040691006 -0.022496359 0.035292897 0.054810878 0.92923933 0.36539173
-0.053128202 -0.020299695 0.009138383 -0.50789082 0.82430542 0.25013673
-0.044693325 -0.019057656 0.015327609 -0.23399325 0.91995251 0.31454057
-0.042603672 -0.019366616 0.017669667 -0.21160002 0.91790456 0.33567488
-0.039813675 -0.019761533 0.020473287 -0.19439664 0.92259902 0.33319965
-0.00474294 -0.020755915 0.031904176 0.019654524 0.92958671 0.36808044
-0.0021079178 -0.021236204 0.032566965 0.030398019 0.92841721 0.37029502
-0.0011727853 -0.021525266 0.033675209 0.037255537 0.93113875 0.36275849
