# .PCD v0.7 - Point Cloud Data file format
VERSION 0.7
FIELDS x y z normal_x normal_y normal_z
SIZE 4 4 4 4 4 4
TYPE F F F F F F
COUNT 1 1 1 1 1 1
WIDTH 658
HEIGHT 1
VIEWPOINT 0 0 0 1 0 0 0
POINTS 658
DATA ascii
-0.0055453926 -0.02144401 -0.17523544 -0.17269264 -0.39899749 -0.90054393
-0.00090953306 -0.021270428 -0.17579295 -0.06402728 -0.37643108 -0.92423004
0.01929779 -0.025162634 -0.17288409 0.1509257 -0.42420903 -0.89289927
-0.0042419508 -0.020493533 -0.17591964 -0.11719684 -0.35118732 -0.92894208
0.0036910169 -0.022108637 -0.17567009 0.030291729 -0.38615465 -0.92193711
0.0063278563 -0.020760883 -0.17608695 0.098367073 -0.36702529 -0.92499584
-0.0030052112 -0.020910213 -0.17574103 -0.081845984 -0.38104254 -0.92092824
-0.0079818312 -0.017707244 -0.17630777 -0.17988384 -0.36467549 -0.91359437
-0.0056076837 -0.018580066 -0.17629361 -0.14685942 -0.34788746 -0.9259631
0.0015632058 -0.021110183 -0.17593712 -0.033706222 -0.35982999 -0.93240941
0.012644669 -0.021874769 -0.17522748 0.10409374 -0.36534858 -0.92503291
0.00044729983 -0.019376917 -0.17663752 -0.031514239 -0.33479604 -0.94176406
-0.0025908614 -0.017743703 -0.17700709 -0.084007479 -0.32885724 -0.94063628
0.00086720532 -0.01725919 -0.1771463 -0.0045009479 -0.32093388 -0.94709146
-0.0055164592 -0.015639866 -0.17745487 -0.12262509 -0.31648564 -0.94063866
0.0045752153 -0.018821515 -0.17690876 0.044475902 -0.32188272 -0.9457348
-0.00010002799 -0.015214288 -0.17805241 -0.022427468 -0.29226038 -0.95607626
-0.0030881653 -0.014230844 -0.1780747 -0.081031702 -0.27458036 -0.95814431
0.0079797097 -0.017967656 -0.17685354 0.014901343 -0.335529 -0.94191259
-0.0094565852 -0.013862825 -0.17737968 -0.18865763 -0.27806792 -0.94185323
0.0036493738 -0.017591065 -0.17726482 -0.016802106 -0.30494991 -0.95222062
0.0034500721 -0.015624173 -0.17792346 0.015501969 -0.28074357 -0.95965815
0.0065075736 -0.015947623 -0.1776434 0.058665816 -0.2882005 -0.9557718
0.0025029061 -0.013368753 -0.17842682 0.055310503 -0.23192808 -0.97115964
0.0042806393 -0.013432568 -0.1783058 0.015858462 -0.23234326 -0.97250503
-0.0070297387 -0.013073699 -0.17803471 -0.13386746 -0.28502926 -0.94912535
-0.0012681357 -0.01246585 -0.17866653 -0.059632692 -0.23847978 -0.96931529
-0.0059334734 -0.012707774 -0.17822346 -0.093602262 -0.26797512 -0.9588685
-0.0028224369 -0.011364716 -0.17886008 -0.04569855 -0.2637687 -0.96350336
0.0087535558 -0.013705704 -0.17811494 0.066394612 -0.26372617 -0.96231043
0.0010631175 -0.011529047 -0.17903444 0.016709791 -0.19890402 -0.979877
0.0072752242 -0.012022756 -0.17874286 0.038528416 -0.23433949 -0.97139156
0.011448294 -0.011815053 -0.17832619 0.08815562 -0.21658 -0.97227705
0.01160253 -0.014907379 -0.17769727 0.10281165 -0.26629913 -0.95839214
-0.0043709497 -0.010404522 -0.17914422 -0.079102196 -0.22948439 -0.97009319
-0.0047501284 -0.0066628968 -0.17977922 -0.070453405 -0.13515532 -0.98831689
0.0035933885 -0.010597932 -0.17898788 0.013336537 -0.21140514 -0.97730803
0.00030942477 -0.0085011572 -0.17940952 0.020381894 -0.15123144 -0.98828876
-0.0071039414 -0.0065041515 -0.17961456 -0.12378419 -0.18794782 -0.97434801
-0.0059223925 -0.0067079361 -0.17948477 -0.080353282 -0.17330307 -0.98158562
-0.0024615545 -0.0086045619 -0.17950137 -0.0026741857 -0.17524944 -0.98452091
0.0016573282 -0.0076188156 -0.17965116 -0.015618728 -0.19784968 -0.98010844
0.0084231431 -0.0089012599 -0.1792772 0.072233431 -0.17143171 -0.9825449
-0.0091432072 -0.0038224806 -0.17973001 -0.13698731 -0.13401715 -0.98146564
0.0063648704 -0.0071226028 -0.17954597 0.074589685 -0.11981036 -0.98999131
-0.0010517464 -0.0057693683 -0.1798778 -0.021892926 -0.14807309 -0.98873454
0.010208093 -0.0063765193 -0.17958 0.06894768 -0.15095341 -0.98613399
-0.0060504568 -0.004359555 -0.1799715 -0.048138838 -0.090914674 -0.99469501
0.0039067427 -0.0054327012 -0.18001257 0.058914632 -0.1119214 -0.99196965
0.011969275 -0.0088116992 -0.17891654 0.071065761 -0.18807152 -0.97958142
0.007921041 -0.00084203098 -0.18023363 0.10565688 -0.011557142 -0.99433595
0.0095851654 -0.0010853225 -0.17995682 0.088825852 -0.037983503 -0.99532318
0.0053518694 0.0011158276 -0.1804411 0.039414771 -0.0084956624 -0.99918735
-0.0058405162 -0.026191764 -0.17299262 -0.17318359 -0.44500172 -0.87862515
0.0012485804 -0.029735489 -0.17189984 -0.04953282 -0.48471305 -0.87327009
0.015884997 -0.043700401 -0.16165623 0.16788009 -0.63472629 -0.7542811
0.0076700789 -0.019302219 0.093660221 0.80675894 -0.59050524 0.0210805
0.013638351 -0.053743657 -0.14955041 0.16786334 -0.89538538 -0.4124414
0.012620911 -0.054643642 -0.14786083 0.1560995 -0.94506669 -0.28719845
0.016581269 -0.053526834 -0.14851163 0.29766992 -0.89633411 -0.3286013
0.025752746 -0.050422773 -0.14314377 0.54850292 -0.83075148 -0.094854727
0.0065963562 -0.024676243 0.0050228182 0.41946265 -0.85637206 -0.30112904
0.024379319 -0.048586793 -0.1513166 0.46655878 -0.7890498 -0.39965528
0.024329368 -0.049455825 -0.14968899 0.49639636 -0.79938364 -0.33849305
0.026221052 -0.049481943 -0.14606822 0.50901747 -0.82976043 -0.22890984
0.010439623 -0.01576815 0.067223683 0.9946537 -0.072245561 0.073794372
0.027269457 -0.048368163 -0.14773515 0.51349413 -0.80473655 -0.29786527
0.0078629227 -0.023323579 0.0036439064 0.41936108 -0.7782051 -0.46747628
0.0079144118 -0.023845801 0.006213963 0.66495311 -0.74682879 -0.0092209149
0.0086378884 -0.023119174 0.0077349972 0.70682192 -0.70579016 0.04758314
0.010350866 -0.016568946 0.062381875 0.94601238 -0.32344317 0.021123303
0.025846234 -0.047543317 -0.15159957 0.47722799 -0.78078842 -0.40326646
0.0087726368 -0.022801846 0.005236221 0.71115422 -0.69808269 -0.083313823
0.0087760277 -0.022139344 0.002912614 0.5450269 -0.73903918 -0.39593911
0.028725779 -0.046687379 -0.14978728 0.52855927 -0.77579564 -0.34462607
0.0098010022 -0.021640243 0.0060823597 0.82386601 -0.56566328 0.035647731
0.010950159 -0.017485742 0.037760086 0.91978347 -0.39075112 0.036235359
0.02702062 -0.046017483 -0.15327573 0.48539123 -0.74885809 -0.45122933
0.010590998 -0.019911647 0.0014486661 0.61433041 -0.72329497 -0.31534657
0.01134498 -0.018383835 0.010167884 0.90803748 -0.41834882 0.021285569
0.0095378803 -0.019938663 -2.2459591e-05 0.33228466 -0.84643519 -0.41609517
0.010126327 -0.021091022 0.0035885472 0.7938478 -0.60211062 -0.085259862
0.010772648 -0.019809473 0.0052984832 0.90343899 -0.42736313 0.03405422
0.011862673 -0.014997766 0.03709856 0.99909353 -0.04253196 -0.0019996681
0.011688528 -0.015082205 0.041215491 0.99334246 -0.11222027 0.026043996
0.011549437 -0.017725207 0.01433394 0.92484194 -0.37979093 0.020667274
0.011614471 -0.017191786 0.021892438 0.92045605 -0.39022145 0.022111788
0.028539924 -0.04578511 -0.15151401 0.5399217 -0.73629081 -0.40787414
0.029770885 -0.045608554 -0.150112 0.58806151 -0.72804838 -0.35232097
0.010881172 -0.018968152 -0.0005061595 0.73299873 -0.66185009 -0.15706171
0.011870869 -0.01703367 0.010704899 0.92613941 -0.37654701 0.021890327
0.019689089 -0.042355623 -0.16179267 0.23786834 -0.64756942 -0.72392935
0.033768598 -0.043863397 -0.14393468 0.67923892 -0.72573817 -0.10926851
0.032744586 -0.045019682 -0.14153863 0.67442787 -0.73823214 -0.012698373
0.01148053 -0.018839983 0.0017885326 0.89278609 -0.44943967 -0.030628733
0.012163712 -0.016000694 0.012318574 0.96458626 -0.26373067 0.0045197681
0.012246577 -0.015751382 0.014491446 0.96504033 -0.26210102 -0.0010791934
0.01207067 -0.017126799 0.0006660003 0.93069559 -0.36573547 -0.0066632833
0.012687928 -0.015615541 -0.0025668249 0.99679512 -0.079724886 -0.0066623786
0.034761406 -0.042518362 -0.1460285 0.69616777 -0.69827729 -0.16661431
0.012518758 -0.016238099 -0.0048031211 0.99736524 -0.067377552 0.026904399
0.032342181 -0.041789003 -0.15346341 0.60599095 -0.69732714 -0.38276711
0.03534114 -0.041356146 -0.14809029 0.67864692 -0.70400453 -0.20932503
0.036783751 -0.040495642 -0.14579263 0.72054285 -0.67606157 -0.15414178
0.031115653 -0.041631922 -0.15534374 0.54771608 -0.69357771 -0.46792951
0.033682242 -0.039820403 -0.15484251 0.60779047 -0.6756019 -0.41731733
0.034905389 -0.040741194 -0.15113914 0.63113505 -0.70447266 -0.32463497
0.036959369 -0.038973887 -0.15099883 0.7282334 -0.63332349 -0.261875
0.037711844 -0.039936513 -0.14126748 0.76534367 -0.64360452 -0.0048242519
0.035405483 -0.03923798 -0.1530837 0.62732822 -0.67035687 -0.39633581
0.037272006 -0.040092617 -0.14469399 0.7080422 -0.69715226 -0.11249866
0.038649909 -0.038700342 -0.14517289 0.74247384 -0.66176355 -0.1039357
0.039455511 -0.037887469 -0.1439454 0.77819687 -0.6267364 -0.040152412
0.041278891 -0.035361081 -0.14455596 0.80297118 -0.58848113 -0.094489031
0.033501375 -0.034171097 -0.16170792 0.52221894 -0.58408499 -0.62139595
0.036441527 -0.034259465 -0.15849392 0.6442318 -0.5700891 -0.50986737
0.046151727 -0.028075151 -0.14371072 0.86606282 -0.49595985 -0.062927336
0.048100322 -0.024221445 -0.13992111 0.89298093 -0.44662389 0.055796728
0.047155678 -0.02645587 -0.14107494 0.88122779 -0.47219768 0.021635273
0.048387643 -0.024058744 -0.14298487 0.89069921 -0.45323175 -0.035170205
0.011810085 -0.054977655 -0.14635624 0.073378429 -0.99674195 -0.033497434
0.022521975 -0.023905545 -0.1727438 0.24461243 -0.44245374 -0.86278635
0.01814637 -0.052120466 -0.15022585 0.34751004 -0.85318953 -0.38897982
0.030157762 -0.043620326 -0.15351406 0.54139978 -0.73066431 -0.41595304
0.027932188 -0.041235354 -0.15877181 0.44245556 -0.66357166 -0.60324675
0.017190667 -0.054496083 -0.14278598 0.2030136 -0.97305948 0.10927813
0.022137629 -0.051503915 -0.14793979 0.40093654 -0.8458904 -0.35173887
0.022046145 -0.05207416 -0.14638567 0.45528391 -0.86645865 -0.20485793
0.023953039 -0.051453926 -0.14377052 0.48916653 -0.86579746 -0.10541205
0.022705998 -0.050735831 -0.1488681 0.46181995 -0.83265775 -0.30562121
0.023814488 -0.050905686 -0.14628476 0.52565539 -0.81637907 -0.23919147
0.0081312843 -0.019135594 0.080675215 0.69405514 -0.71969718 -0.018014321
0.021803914 -0.050602768 -0.15063505 0.41526878 -0.80614066 -0.42153296
0.027625015 -0.048769593 -0.1452648 0.58380574 -0.79980326 -0.13959399
0.029908605 -0.047479853 -0.14154288 0.62956613 -0.77490532 -0.05629579
0.027774993 -0.049037926 -0.14198157 0.5835194 -0.81037647 -0.052876148
0.027724864 -0.049180105 -0.13904916 0.57901126 -0.81430399 0.040692456
0.030206326 -0.04688219 -0.14488138 0.63524401 -0.76071626 -0.13332999
0.029229425 -0.046980709 -0.14762668 0.60434818 -0.76949239 -0.206508
0.031303551 -0.046231393 -0.14129184 0.64713085 -0.76154 -0.035770211
0.031570237 -0.045541245 -0.14488739 0.64349717 -0.75551975 -0.12289132
0.032187108 -0.045419045 -0.14336132 0.63174373 -0.76780367 -0.10666976
0.032353226 -0.037633087 -0.15934736 0.53651804 -0.59699076 -0.59644878
0.034359261 -0.03730721 -0.15754554 0.59321028 -0.63015038 -0.50101191
0.031178106 -0.037156548 -0.16055785 0.46442053 -0.62356359 -0.62887448
0.03381354 -0.036635287 -0.15882324 0.57468277 -0.58618528 -0.57107562
0.036155798 -0.036012106 -0.15680052 0.62463462 -0.59189427 -0.50940508
0.034075327 -0.035423439 -0.15997411 0.54658663 -0.60536659 -0.57859749
0.035387635 -0.032191027 -0.16172907 0.55987632 -0.53702384 -0.63098723
0.036673296 -0.03286868 -0.15982966 0.60726476 -0.56879663 -0.55470771
0.035291914 -0.029149733 -0.16430035 0.50520009 -0.49265996 -0.7085619
0.033788115 -0.030889576 -0.16411766 0.50085658 -0.51309699 -0.69704753
0.037868626 -0.031901512 -0.15924181 0.6648289 -0.57642668 -0.47511661
0.037853222 -0.030561225 -0.16089799 0.61779606 -0.52386045 -0.58642918
0.03942873 -0.029447956 -0.15967923 0.67086458 -0.48130694 -0.5641678
0.040321596 -0.029970165 -0.15828855 0.68525159 -0.55036736 -0.47699785
0.038738579 -0.028243614 -0.16162421 0.62357974 -0.52528417 -0.57898676
0.040418893 -0.027903104 -0.16016893 0.67551672 -0.49048334 -0.55054903
0.042325605 -0.026215173 -0.15913406 0.72347558 -0.47234941 -0.50345808
0.0031994404 -0.026310144 0.0069117444 0.20480676 -0.96486694 -0.16458108
0.037927184 -0.029167842 -0.16194254 0.61290872 -0.4872359 -0.62204891
0.020235332 -0.050979815 -0.15080769 0.33854434 -0.83907253 -0.42584723
0.031904034 -0.038652621 -0.15852171 0.51544017 -0.66693997 -0.53806472
0.03357967 -0.038777646 -0.15639207 0.58273923 -0.66776872 -0.46314251
0.013791305 -0.055185843 -0.14397849 0.088208519 -0.99403614 0.064128794
0.016314926 -0.054502878 -0.14592314 0.24854256 -0.94954509 -0.1912896
0.020096445 -0.052657239 -0.14703429 0.3461358 -0.8876977 -0.30361813
-0.0058026286 -0.019555425 -0.013205894 0.63619941 -0.76851183 0.068124123
0.015718877 -0.054324329 -0.14149627 -0.0080731399 -0.93268353 0.36060691
0.013778387 -0.05382264 -0.14089051 -0.10165656 -0.85044485 0.51614958
0.020741601 -0.053299099 -0.14066622 0.25261673 -0.96210963 0.10262015
0.018306766 -0.05390707 -0.14095196 0.22121245 -0.96641493 0.13079849
0.020346252 -0.053269614 -0.14428635 0.37871984 -0.91700017 -0.12523164
0.022271143 -0.052681252 -0.13973473 0.44417855 -0.8936497 0.064005256
0.022135671 -0.052457109 -0.14216483 0.47461653 -0.87748009 -0.069057785
0.024100801 -0.051546611 -0.14037557 0.52123696 -0.85333765 -0.011303245
0.024918184 -0.050834596 -0.13724004 0.48168397 -0.86893272 0.11374308
0.026332341 -0.050045531 -0.13960034 0.54959416 -0.83539629 0.0077531342
0.026869947 -0.049501728 -0.13585784 0.56784064 -0.80847335 0.15468934
0.032105081 -0.043123089 -0.15129396 0.60317618 -0.71715879 -0.34908822
0.033071108 -0.043563619 -0.14867058 0.66824776 -0.70251888 -0.2447715
0.031067401 -0.044102084 -0.15082215 0.58447593 -0.72538561 -0.36359942
0.031921286 -0.044735689 -0.14842284 0.62020689 -0.75201517 -0.22319819
0.033555698 -0.042455219 -0.14994678 0.66333127 -0.69068247 -0.28801098
0.03289935 -0.044340156 -0.14538383 0.66178054 -0.7362709 -0.14125405
0.028918205 -0.047350924 -0.13317999 0.59538156 -0.7726658 0.22024816
0.033645157 -0.044142488 -0.13866042 0.68593949 -0.7253896 0.057428051
0.030175028 -0.045717094 -0.13165776 0.62319791 -0.74126214 0.24931054
0.027510045 -0.047269527 -0.12992331 0.57296115 -0.77243048 0.27398428
0.027921209 -0.046110645 -0.12760553 0.56088054 -0.76979679 0.30467498
0.034701351 -0.043087877 -0.1430279 0.70371664 -0.7078017 -0.061648991
0.032398097 -0.045098279 -0.13692336 0.66386384 -0.74207258 0.09281189
0.034811147 -0.043056637 -0.13958649 0.7124334 -0.70044684 0.042589605
0.032253914 -0.044677924 -0.13369429 0.66364968 -0.72048831 0.20116344
0.031788174 -0.044141907 -0.13036849 0.65553343 -0.71215081 0.2512331
0.036734212 -0.041131202 -0.14216587 0.73256642 -0.67875153 -0.051417604
0.031565245 -0.044425879 -0.13163975 0.63359797 -0.74089622 0.22277197
0.034401368 -0.042980794 -0.13517855 0.68931007 -0.70659763 0.15991406
0.033083916 -0.042824544 -0.13061887 0.67534763 -0.70253646 0.22438589
0.030262811 -0.044896092 -0.12895381 0.59796852 -0.75339139 0.27356145
0.035085388 -0.042260032 -0.13543822 0.73602414 -0.66668224 0.11749105
0.031099286 -0.043079313 -0.12649508 0.62408805 -0.7073698 0.33187827
0.034631245 -0.041835718 -0.13198213 0.69155687 -0.68845624 0.21858175
0.033417508 -0.041461688 -0.12768789 0.67800832 -0.67409354 0.29309314
0.023387004 -0.043483764 -0.11808793 0.31003797 -0.76307577 0.56709152
0.036116846 -0.040929798 -0.13522054 0.7178334 -0.68442571 0.12758411
0.030936005 -0.042528637 -0.12521739 0.63071829 -0.69260019 0.35000071
0.037086245 -0.040271912 -0.13659897 0.73655349 -0.66762722 0.10846099
0.024717212 -0.042137861 -0.11754514 0.47365034 -0.68924189 0.54827178
0.036550317 -0.040376734 -0.13311614 0.72059202 -0.6630851 0.20264831
0.031780098 -0.041110288 -0.12391329 0.6408301 -0.68047071 0.35538337
0.037934877 -0.039660413 -0.13925 0.76047248 -0.64651376 0.060849529
0.038551591 -0.038407631 -0.13582982 0.74542326 -0.6566627 0.1146267
0.037283808 -0.039467745 -0.13368417 0.7514407 -0.63664061 0.17328238
0.034457691 -0.039413586 -0.12566631 0.6841442 -0.64238846 0.34537625
0.040158924 -0.036983319 -0.14228921 0.80391163 -0.59465665 -0.010512308
0.039990194 -0.037188195 -0.13975133 0.77466291 -0.63156509 0.031997994
0.038339984 -0.038151149 -0.13323827 0.75431317 -0.63028711 0.18371421
0.031849191 -0.040053304 -0.12133435 0.63513517 -0.72052568 0.27829301
0.032997116 -0.039133597 -0.12285846 0.68260074 -0.66067225 0.31236112
0.040599462 -0.036199819 -0.13660283 0.78523999 -0.60562921 0.12888819
0.039548036 -0.037240624 -0.13524278 0.76376784 -0.63576251 0.11165021
0.043055508 -0.032400843 -0.14766091 0.80402875 -0.57368231 -0.15629232
0.043970928 -0.031556312 -0.14454287 0.8235926 -0.56526953 -0.04654628
0.044334024 -0.030865708 -0.14598276 0.84317672 -0.52217382 -0.12801732
0.044742525 -0.029811181 -0.14750926 0.84228635 -0.52441269 -0.12468329
0.045598004 -0.029081861 -0.14278793 0.85702807 -0.514651 -0.025260344
0.044319056 -0.031185457 -0.14087804 0.83990812 -0.54227269 0.02226158
0.045188393 -0.029358275 -0.13722575 0.85121918 -0.52029723 0.068683743
0.044272032 -0.030917466 -0.13626702 0.85464859 -0.5039413 0.12497936
0.045741938 -0.028028671 -0.14817664 0.85643417 -0.49140322 -0.15825373
0.047005493 -0.02622027 -0.14587003 0.8775754 -0.46732244 -0.10710742
0.046408068 -0.027597142 -0.13977988 0.86860728 -0.49235022 0.055799015
0.048205093 -0.023613466 -0.14631751 0.88958365 -0.44789565 -0.089618891
0.0041251634 -0.02201198 0.067194119 0.44090667 -0.89755297 0.00099412748
0.0049716085 -0.021400845 0.07006897 0.49438995 -0.86922187 0.0057284855
0.013510513 -0.022880163 -0.052113153 0.79691118 -0.59723669 0.090784468
0.013312228 -0.021224087 -0.050539922 0.92089593 0.38971257 -0.0087170759
0.013287851 -0.02290698 -0.050335035 0.71763629 -0.68566746 0.12189876
0.013250105 -0.021967359 -0.047520019 0.97148609 -0.23129866 0.052122988
0.012590697 -0.022871856 -0.048249044 0.35999075 -0.91972202 0.15658586
0.012798942 -0.022359323 -0.045024309 0.55932486 -0.82122278 0.11291455
0.011943271 -0.022391498 -0.042173255 0.30070448 -0.94301295 0.14249317
0.012461932 -0.02154547 -0.038981669 0.58396888 -0.80100387 0.13181001
0.010520134 -0.021923389 -0.040088356 -0.34808004 -0.93494344 0.068716265
0.013239824 -0.019598544 -0.038062282 0.99249953 -0.10586397 0.061142378
0.0124686 -0.021142138 -0.037020933 0.78880054 -0.60883743 0.084330015
0.012915757 -0.020128038 -0.032390796 0.7721653 -0.62878251 0.091620706
0.01276726 -0.019944035 -0.030720357 0.58423001 -0.80169934 0.12631045
0.011598878 -0.019618623 -0.028128181 0.35533229 -0.93274808 -0.061001204
0.011815729 -0.02040817 -0.027083052 0.54275233 -0.83988214 0.0043342765
0.013083146 -0.018444443 -0.030512569 0.99727577 0.073360249 -0.0077637336
-0.0042648111 -0.018175714 -0.016267484 0.74023116 -0.67117083 0.039856989
-0.0033025637 -0.017066237 -0.014450085 0.49345258 -0.86968499 0.012384299
-0.0026633565 -0.016853057 -0.011746744 0.39395967 -0.91823918 -0.040417083
-0.0041887867 -0.017792195 -0.0090986099 0.57767409 -0.81502229 -0.045078676
0.012671445 -0.01641356 -0.024955455 0.92316353 0.38326383 -0.029648766
-0.0036598362 -0.017287631 -0.012311629 0.66845185 -0.74359608 0.01542713
0.01285092 -0.017335808 -0.023625612 0.9979589 0.058406454 -0.025840338
-0.0058102114 -0.019080758 -0.0048932447 0.31325263 -0.94836843 0.049710374
-0.0034919677 -0.017328374 -0.0077755167 0.45606562 -0.88383502 -0.10411925
-0.003749405 -0.017858179 -0.0066138976 0.52960318 -0.84399241 -0.08484222
0.0048449296 -0.025635246 0.0094587663 0.40920189 -0.91184878 0.032964904
0.012805013 -0.017935937 -0.017404964 0.96660501 -0.25311807 0.040087502
0.0063501089 -0.024881899 0.0079612834 0.52684897 -0.84990728 0.0094146756
0.01221489 -0.017862434 -0.010586188 0.8376174 -0.54559737 0.026861848
0.0066847256 -0.024641512 0.010172916 0.58625495 -0.80719411 0.068874888
0.0051657339 -0.024782285 0.016531629 0.46481389 -0.88320363 0.062452558
0.012675375 -0.017026702 -0.011070255 0.99790072 -0.064615391 0.0044911946
0.0068598236 -0.023805013 0.016017651 0.61795372 -0.78336281 0.066908248
0.005742162 -0.024595305 0.018546078 0.50832736 -0.85765779 0.077636115
0.012607437 -0.01664342 -0.007647614 0.9625029 -0.26574704 0.054476369
0.00644902 -0.023643197 0.020712905 0.62462246 -0.7770471 0.077752493
0.0054921987 -0.024167974 0.022932298 0.54739124 -0.83391517 0.07035096
0.0031641277 -0.024765594 0.028881967 0.30241954 -0.9503746 0.073017247
0.0055321632 -0.023693798 0.028079497 0.50791377 -0.85895711 0.06494005
0.0049059056 -0.023697477 0.032243647 0.43139377 -0.90057391 0.053544857
0.0058243126 -0.023070261 0.034646064 0.54998106 -0.83137238 0.079635113
0.0061841425 -0.022565434 0.036250345 0.56120914 -0.82473457 0.069700085
0.0053399429 -0.022907767 0.03950252 0.53219956 -0.84501338 0.052124128
0.0075206785 -0.023726208 0.009014667 0.66780388 -0.74246258 0.052804168
0.011900395 -0.017837459 -0.0016532233 0.81877029 -0.57373101 0.02118407
0.031924926 -0.045641758 -0.1394109 0.66175181 -0.74922603 0.027311426
0.036452129 -0.041376609 -0.13985364 0.72283876 -0.68996239 0.038170535
0.0046038087 -0.025698103 0.0055070785 0.34604022 -0.90298384 -0.25471041
-0.0066822805 -0.019578815 -0.0088997129 0.38959503 -0.92098504 0.0018227096
-0.0085843271 -0.019473124 -0.0069560846 0.056433968 -0.99325752 0.10127001
-0.0019766132 -0.016737387 -0.0083627198 0.40680236 -0.91094059 -0.068557896
0.016486906 -0.034153994 -0.098947376 0.093078308 -0.9456057 0.31171653
0.01473995 -0.034512252 -0.099392377 -0.14384414 -0.95651037 0.25376728
0.014958481 -0.033448536 -0.096580863 0.051391773 -0.96038085 0.27391338
0.015699577 -0.032913212 -0.094794363 0.11810416 -0.96362305 0.23975623
0.0088723367 -0.018358214 0.081885137 0.86490315 -0.49878362 0.056199297
0.0071814535 -0.019978995 0.08774446 0.62876499 -0.77755779 -0.0077090329
0.0060231164 -0.020764165 0.08770404 0.36828983 -0.92877871 -0.041637439
0.0052632429 -0.021692151 0.097828425 0.28617114 -0.95481753 -0.080190569
0.008114282 -0.01803888 0.094185352 0.90661204 -0.4209263 0.029609639
0.009045261 -0.01764461 0.0832178 0.89217699 -0.44985583 0.040632907
0.0075819502 -0.019294035 0.097333319 0.87664306 -0.47859132 0.049481831
0.00070227927 -0.019256385 -0.051051114 0.40102071 -0.90043002 0.16855018
-0.00076461828 -0.019354545 -0.046868719 0.59488249 -0.79020637 0.14727333
0.00097503903 -0.018731179 -0.048252039 0.46741828 -0.8689245 0.16276161
-0.0014643701 -0.019507335 -0.043728258 0.68169379 -0.71214092 0.16777934
-1.8113715e-05 -0.018423934 -0.043774065 0.54816234 -0.81848341 0.1720576
0.0055980608 -0.021084474 0.089951053 0.049582634 -0.99684775 -0.061944246
0.019319635 -0.053046502 -0.13824333 -0.0014190915 -0.93524408 0.354002
0.0044999951 -0.022055373 0.10085738 0.054603711 -0.99298799 -0.10485312
0.021505341 -0.052253518 -0.13618225 0.21792401 -0.94244921 0.25357363
0.0086515015 -0.049767379 -0.13539103 0.049820438 -0.85037267 0.5238179
0.002842284 -0.047392894 -0.12960082 0.30210698 -0.81342012 0.49707139
-0.0005126794 -0.048710451 -0.12917557 0.40977117 -0.77779788 0.47656992
0.030042004 -0.047364544 -0.13876426 0.64051026 -0.76512349 0.065829813
0.027841453 -0.048705965 -0.13614379 0.59016979 -0.79819751 0.12075258
0.025043292 -0.04977693 -0.13202885 0.45219934 -0.84029883 0.29902253
0.00014699541 -0.047654048 -0.12792453 0.41463017 -0.77482361 0.47721183
0.029484479 -0.047398183 -0.13560416 0.61455369 -0.77881682 0.12557454
-0.001035456 -0.047943357 -0.1272314 0.43858463 -0.7711463 0.46149525
0.02530724 -0.048386682 -0.12896222 0.4972001 -0.81687641 0.29241374
0.031032987 -0.045826875 -0.13390677 0.64205331 -0.74760985 0.16984692
0.024886841 -0.048155092 -0.12716253 0.38961726 -0.85123581 0.35156348
-0.00064678071 -0.0460063 -0.1244827 0.45331299 -0.74760222 0.48538557
-0.0029294339 -0.046897769 -0.12370358 0.3842158 -0.78756672 0.48178598
0.0018912932 -0.046362549 -0.12735707 0.37472785 -0.78791273 0.48864448
-0.00042251029 -0.044978272 -0.12329715 0.4067446 -0.77933288 0.47665516
0.0036176776 -0.044564128 -0.12544356 0.24859361 -0.83498496 0.49091977
0.026083075 -0.046546917 -0.12554456 0.49813697 -0.76704544 0.4043535
0.002506746 -0.04381099 -0.1235039 0.32293266 -0.79964077 0.50625092
0.004077157 -0.043993272 -0.12456531 0.22025774 -0.84314412 0.49050531
-0.0017027098 -0.044151608 -0.1204855 0.43455371 -0.76487422 0.47553274
-0.0055689737 -0.044467993 -0.11910854 -0.20490727 -0.77919173 0.59234637
0.023963809 -0.0463228 -0.1229773 0.34283623 -0.81905162 0.46002024
0.00057927414 -0.042456862 -0.11990723 0.3749637 -0.8023268 0.46440819
-0.002331526 -0.043141093 -0.11829855 0.36450046 -0.79825151 0.47951525
-0.0038734279 -0.043979522 -0.11846154 0.29287177 -0.78005815 0.55293429
0.036524929 -0.038936265 -0.12989071 0.74271315 -0.62410319 0.24263802
0.042246133 -0.033987138 -0.1437346 0.81054318 -0.58456725 -0.036076721
0.041264921 -0.035516392 -0.13969986 0.82928801 -0.5588215 0.00080109277
0.042505745 -0.033929482 -0.14058404 0.80183965 -0.59753996 5.8145226e-05
0.0060134232 -0.040350873 -0.11905422 0.12123916 -0.87329912 0.47185856
0.002578289 -0.040157098 -0.11706787 0.26191205 -0.85522032 0.44721475
0.041973133 -0.034191702 -0.13933873 0.78329641 -0.62144041 -0.016104238
0.037747517 -0.038256776 -0.13174663 0.73382187 -0.63765842 0.23430367
0.035608515 -0.039717261 -0.12923226 0.70255369 -0.65158367 0.28610855
7.051482e-05 -0.041514821 -0.11771774 0.3791109 -0.81341666 0.44116804
0.042728629 -0.033419579 -0.14292949 0.82489306 -0.565162 -0.012006644
0.041603435 -0.034966871 -0.13718846 0.80056459 -0.59309202 0.085668184
0.029417414 -0.041345716 -0.1211879 0.51192242 -0.77487487 0.37081701
0.027055776 -0.042069171 -0.11915511 0.48783439 -0.68640757 0.53931743
0.039883394 -0.036073886 -0.1330258 0.77711302 -0.59502167 0.20504971
0.037065815 -0.03752964 -0.12753057 0.72237939 -0.62436092 0.29722452
0.030142572 -0.040762261 -0.11973956 0.42704758 -0.89241576 0.14568959
0.028513145 -0.041565463 -0.12039606 0.57791489 -0.68143076 0.44907406
0.0013481161 -0.0398941 -0.11570319 0.32759944 -0.84327263 0.42611113
0.043337781 -0.032395974 -0.13932826 0.84124357 -0.54033059 0.018788435
0.039626345 -0.035479769 -0.13046493 0.73954374 -0.63894498 0.21172
0.038556002 -0.036734153 -0.13037673 0.7579537 -0.60907155 0.23353586
0.035109654 -0.037762251 -0.12421671 0.6831823 -0.66652071 0.2983506
0.040948305 -0.034558948 -0.13270073 0.79433006 -0.58265275 0.17191978
0.00035979733 -0.038908176 -0.11262169 0.37674025 -0.84148097 0.3872692
0.043122519 -0.032694221 -0.13643391 0.82246011 -0.55695629 0.11558487
0.039127849 -0.035241429 -0.12835084 0.76355594 -0.56624103 0.31040981
0.036306478 -0.036815137 -0.1250995 0.70542783 -0.66886193 0.23451284
0.035424545 -0.037462886 -0.12290466 0.62020677 -0.78312999 0.045298275
0.022505144 -0.041177571 -0.11480569 0.012549222 -0.79463589 0.60695738
0.021303348 -0.040391978 -0.11365695 0.02344384 -0.83077294 0.55611831
0.043934189 -0.031488944 -0.13852532 0.84047771 -0.54098225 0.030597301
0.040617649 -0.034379449 -0.13014789 0.77026778 -0.57420248 0.27745256
0.03893828 -0.034459647 -0.12725258 0.72027427 -0.62029994 0.31053814
0.037640888 -0.035709266 -0.12589979 0.74691129 -0.6062814 0.27303341
0.037112851 -0.036030479 -0.12439398 0.68509245 -0.72446132 0.076191187
0.04092152 -0.03247042 -0.12834789 0.83027577 -0.4486343 0.33071187
0.043308292 -0.031406838 -0.1335372 0.82228708 -0.52946675 0.20859008
0.041647669 -0.033155166 -0.1310333 0.82965505 -0.49984658 0.2486497
0.0013731896 -0.037096098 -0.10946519 0.35515568 -0.8662498 0.35139236
0.002149652 -0.037281018 -0.11110514 0.32302642 -0.86473167 0.38456988
0.044179074 -0.029910067 -0.13341174 0.83114552 -0.51868677 0.20040478
0.039488632 -0.033922918 -0.12655394 0.7425766 -0.63182408 0.22221483
0.0053875293 -0.035922576 -0.11020788 0.15013632 -0.89384848 0.42248666
0.045193784 -0.029146964 -0.13472427 0.8505953 -0.50306982 0.1530004
0.041946806 -0.031252723 -0.12913835 0.81238246 -0.47065184 0.3442708
0.042772181 -0.030430386 -0.129926 0.82466537 -0.49443132 0.27471009
0.043925907 -0.029195366 -0.13069516 0.81892544 -0.52443022 0.23309861
0.0039726989 -0.034844533 -0.10669962 0.20912668 -0.90655947 0.36662927
0.015731066 -0.036291339 -0.10559937 0.031999614 -0.97957635 0.19851249
0.0035262431 -0.034429371 -0.10545397 0.35518068 -0.86637247 0.35106471
0.0009558968 -0.034955889 -0.10310365 0.49419737 -0.81392008 0.30545685
0.017539214 -0.035611387 -0.10429941 0.30662343 -0.94925237 0.070021033
0.0030722404 -0.033380471 -0.10256992 0.31213081 -0.88133174 0.35472482
0.0013568513 -0.033855017 -0.10117172 0.53612602 -0.80342203 0.25900337
0.0029720147 -0.032878507 -0.10070194 0.45879847 -0.83999676 0.28967282
0.0020283209 -0.032479748 -0.098618478 0.51999694 -0.78392053 0.33922374
0.0044985274 -0.031668246 -0.099273801 0.32143649 -0.87737459 0.35622093
0.0039841067 -0.030457178 -0.095817722 0.30971673 -0.89312458 0.32619783
0.0027654036 -0.031473707 -0.097162195 0.38911819 -0.85411352 0.34507677
0.00086905085 -0.032383699 -0.095887333 0.66042948 -0.70299047 0.26389086
0.0019101691 -0.030918626 -0.094499685 0.5205344 -0.80452466 0.28598067
-0.00032806667 -0.032024436 -0.091488615 0.5870167 -0.7472834 0.31141591
0.002972469 -0.029276505 -0.091400638 0.4417679 -0.84623593 0.29787037
-0.00084105943 -0.031850692 -0.089849956 0.53545094 -0.8050918 0.25518683
0.00078895933 -0.031419225 -0.093022421 0.65193588 -0.71325171 0.25739604
0.00047697671 -0.03041077 -0.089664213 0.65833241 -0.70611686 0.26076517
0.001811745 -0.029193398 -0.089500502 0.52805328 -0.80350059 0.27485895
-0.0013484723 -0.030711377 -0.085094713 0.57939374 -0.77867961 0.24075276
0.00079204299 -0.029171901 -0.086905859 0.66463733 -0.70838302 0.23759554
-0.00016807081 -0.030429455 -0.08691176 0.68849242 -0.69177139 0.21778762
0.0026155752 -0.028390197 -0.08786606 0.45574582 -0.84206134 0.28849486
-0.001596995 -0.029921962 -0.0816596 0.5735364 -0.7952826 0.19642469
-0.00070691976 -0.029699981 -0.083359763 0.69898653 -0.68347627 0.21042597
0.00067743624 -0.028208392 -0.0839504 0.68181098 -0.69239575 0.23605709
0.0022911495 -0.027312435 -0.08496727 0.48860928 -0.82529962 0.28309405
0.0039009787 -0.026469097 -0.084601082 0.21873163 -0.9265635 0.30600259
-0.00091461174 -0.029164799 -0.080099761 0.67771769 -0.71186912 0.1842339
-0.00051045965 -0.028046576 -0.079177924 0.74942601 -0.62650973 0.2141196
0.0011325536 -0.026989475 -0.080991209 0.60009694 -0.76601523 0.23044536
-0.0017757717 -0.029122628 -0.077907793 0.44442183 -0.87047088 0.21159053
0.0029420806 -0.025831042 -0.080890849 0.37285218 -0.8900156 0.26240134
-0.00046087123 -0.027147146 -0.077354707 0.76678741 -0.62521702 0.14540242
-0.0021156713 -0.02819795 -0.074328251 0.39623311 -0.8907997 0.2224324
0.00028957942 -0.026602568 -0.077264033 0.63715094 -0.73894805 0.21907869
-0.00083065045 -0.027512548 -0.075269267 0.73991716 -0.65062749 0.17090221
0.00021764854 -0.026326651 -0.075622112 0.66599637 -0.71691847 0.20610131
-0.0019916221 -0.027722884 -0.071822442 0.50079507 -0.84665912 0.1799264
0.0025110624 -0.024459032 -0.075890362 0.53445691 -0.79591447 0.28438845
-0.0018399924 -0.027129469 -0.069856308 0.46781245 -0.84400684 0.26230669
-0.0012403807 -0.027052723 -0.071427889 0.80192935 -0.5728671 0.16950943
-0.0028662905 -0.027178118 -0.069714449 0.079315342 -0.96697581 0.24221449
-0.00031667735 -0.025770072 -0.073127307 0.74341065 -0.63404137 0.21291579
0.0019158631 -0.024069494 -0.074288785 0.48507994 -0.84353101 0.23055089
0.00097832817 -0.02402338 -0.070380859 0.59970856 -0.77245587 0.20895585
-0.00030242171 -0.025134182 -0.07007955 0.75173503 -0.63297909 0.18502133
-0.0012140893 -0.026076116 -0.06881886 0.80466866 -0.5719052 0.15947956
0.0033522674 -0.022875043 -0.071455702 0.30435652 -0.92136097 0.24178955
-0.0030924184 -0.026593219 -0.063763291 0.089162767 -0.98955959 0.11323732
-0.00095419574 -0.024559909 -0.0656569 0.83501768 -0.52860069 0.15273404
-0.0015068685 -0.025845645 -0.065192632 0.70072567 -0.69506258 0.16084927
-0.0035470431 -0.0255736 -0.060251608 0.10757888 -0.9837442 0.1437885
-0.0013980716 -0.023760369 -0.060370013 0.83847314 -0.51455849 0.17942491
-0.0020320343 -0.025092991 -0.061163783 0.77983522 -0.60293043 0.1683234
-0.0023902245 -0.025321404 -0.059391677 0.68421727 -0.70478982 0.18740045
-0.0024894148 -0.024615236 -0.057864919 0.83504385 -0.53448975 0.13047361
-0.0018365406 -0.023184448 -0.057341583 0.87051696 -0.46976769 0.14669469
-0.0024543593 -0.02449912 -0.055612698 0.77880323 -0.61659199 0.11524209
-0.0032399422 -0.024408996 -0.052780028 0.38002294 -0.91167259 0.15632203
-0.0024766678 -0.023895763 -0.053872813 0.82874274 -0.54160935 0.14087491
-0.0012508102 -0.022229321 -0.056901075 0.71027386 -0.68733031 0.1519509
-0.0043654898 -0.024325831 -0.051762141 -0.027242737 -0.99562991 0.089330219
-0.0017678328 -0.022535946 -0.054239046 0.86634439 -0.48212308 0.1304056
0.00066015002 -0.020201368 -0.055765763 0.54060698 -0.81974256 0.18912213
-0.0027268033 -0.023380565 -0.049709547 0.84500146 -0.5100134 0.16080981
-0.00029313887 -0.020842576 -0.05446073 0.67664957 -0.71229088 0.18651572
-0.0015521584 -0.021145999 -0.051808733 0.8276844 -0.5347839 0.17013396
-0.0041594622 -0.023734605 -0.047150873 0.035998594 -0.98635542 0.16064873
-0.0017145355 -0.021088194 -0.049980946 0.83769184 -0.53029287 0.13062449
-0.0029639769 -0.0224254 -0.047080487 0.82468975 -0.53964746 0.16931714
-0.0013639173 -0.020341435 -0.047863703 0.77716821 -0.60840952 0.16077408
-0.0032309303 -0.022930183 -0.045343347 0.7459299 -0.65915114 0.095443226
-0.0032789486 -0.022309158 -0.043689482 0.86048532 -0.48038191 0.16970325
-0.0041982792 -0.023034293 -0.042656865 0.29874313 -0.9476245 0.11296654
-0.0024605603 -0.020800851 -0.045299746 0.8273437 -0.54833817 0.12177208
-0.0022468525 -0.020476768 -0.04360522 0.85346597 -0.49333209 0.1679882
-0.0044979607 -0.022851391 -0.039720416 0.13398995 -0.9853785 0.10524743
-0.0047984528 -0.022666827 -0.038452391 0.052632179 -0.9918229 0.11626747
-0.0034548095 -0.022190744 -0.040526092 0.85460567 -0.50364202 0.1264704
-0.002859168 -0.019890156 -0.038802184 0.77842265 -0.61144972 0.14208594
-0.0013399819 -0.018675672 -0.04152317 0.63595176 -0.75892818 0.13998015
-0.0029546178 -0.020295987 -0.041329812 0.85880595 -0.4907214 0.14712499
-0.0035263137 -0.020338202 -0.036195945 0.90128958 -0.40943417 0.14156938
-0.0042447113 -0.020960979 -0.032737151 0.83009982 -0.54141432 0.13343783
-0.0042047482 -0.021838 -0.036058843 0.71457142 -0.68069792 0.16136599
-0.0027510498 -0.018832849 -0.036006596 0.74511451 -0.66018891 0.094636358
0.008190928 -0.018871119 0.087285891 0.8473959 -0.52978736 0.035302859
-0.0024936907 -0.018700223 -0.034070887 0.67223108 -0.72296709 0.15945204
-0.0031957068 -0.019375311 -0.034182519 0.85802978 -0.49706095 0.12929134
-0.0056357989 -0.021909876 -0.031661287 0.24054636 -0.96239185 0.12625505
0.0065957513 -0.020495351 0.090638757 0.61131477 -0.79122376 -0.016121957
-0.0010995319 -0.01736806 -0.035846516 0.58859593 -0.79243934 0.15998645
-0.0055168057 -0.021136058 -0.027194964 0.39758703 -0.90905905 0.12464809
-0.0036256721 -0.018840229 -0.031168079 0.84291649 -0.52436399 0.12056202
-0.0045980876 -0.02032043 -0.027198255 0.8175748 -0.55997831 0.13415077
-0.0073065097 -0.021349145 -0.026061689 -0.27803451 -0.9594534 0.046335597
-0.0011330094 -0.017410139 -0.033722371 0.61102599 -0.7835182 0.11290376
-0.0041727908 -0.020862944 -0.030980179 0.7970556 -0.59537995 0.1011241
-0.0023293376 -0.017549332 -0.031082233 0.6208759 -0.77332854 0.12836279
-0.0036623625 -0.019073142 -0.029760519 0.86863494 -0.4847239 0.10255202
-0.0057534194 -0.020968098 -0.023956237 0.41418031 -0.90097052 0.12925866
-0.00020757176 -0.016088672 -0.030359037 0.47044018 -0.87420028 0.12025268
-0.0029450373 -0.018026974 -0.028781259 0.74068171 -0.66040426 0.12352247
-0.0051399386 -0.020074137 -0.022556007 0.74827367 -0.65233982 0.12058347
-0.0039092298 -0.018446323 -0.02640437 0.81474102 -0.56849462 0.1140698
-0.0059551722 -0.020695709 -0.021051636 0.61498517 -0.78482765 0.076417692
-0.004272663 -0.0186559 -0.023487864 0.80826283 -0.5828495 0.083656989
-0.0060187825 -0.020202395 -0.017328074 0.37466851 -0.91954434 0.11858575
0.011963229 -0.019786177 -0.022643967 0.52291459 -0.84762841 0.089928985
-0.0009281775 -0.016114153 -0.024800025 0.34962276 -0.93441206 0.068109199
-0.0022859713 -0.016838491 -0.024419116 0.55420607 -0.82799637 0.085314266
-0.0011933077 -0.016102819 -0.026439087 0.50436771 -0.85876966 0.090159662
-0.0034985223 -0.017547874 -0.021140277 0.72064847 -0.69123638 0.053470202
0.01269485 -0.019185007 -0.024403689 0.94577807 -0.32192445 0.043236941
-0.0016134561 -0.016016249 -0.022515414 0.56723809 -0.81962466 0.080356576
-0.0028436203 -0.01696193 -0.022609325 0.65582067 -0.75206268 0.065589994
-0.0053094234 -0.019506844 -0.01809218 0.76719189 -0.63844621 0.061678182
-0.004432824 -0.018519141 -0.020097297 0.78729796 -0.61349571 0.061528437
0.012533359 -0.018749859 -0.020614738 0.8913126 -0.44809937 0.069064684
0.011483492 -0.019809518 -0.020155288 0.5241282 -0.84591877 0.098549329
0.011474673 -0.019612117 -0.017832909 0.70784569 -0.70263231 0.072548792
0.0014537722 -0.015228894 -0.022369349 0.052100141 -0.99863815 -0.0028858401
-0.00095626811 -0.015539444 -0.022060605 0.25935811 -0.96341193 0.06761536
-0.001174423 -0.01586128 -0.020311622 0.34678394 -0.93793797 0.0037777424
-0.003302919 -0.017072121 -0.017562393 0.67511183 -0.73768812 -0.0064169881
-0.0025218879 -0.016582042 -0.019698756 0.59459037 -0.80107337 0.068880409
0.011622089 -0.019213388 -0.014848961 0.74695545 -0.65482235 0.11517917
-0.00046685486 -0.015473211 -0.0167921 0.21165065 -0.97731161 -0.0081849135
-0.0021495651 -0.015982445 -0.016865963 0.45104572 -0.89240611 -0.013043823
0.010875428 -0.019413978 -0.012966199 0.70499688 -0.70727724 0.052338328
-0.0011532414 -0.015857752 -0.014308916 0.41860694 -0.89255875 -0.16765445
0.012796582 -0.016992759 -0.013380583 0.95969748 -0.27508685 0.057523113
0.011042386 -0.019237002 -0.011530189 0.2940456 -0.95415407 0.055929851
0.010992953 -0.01895147 -0.0096628573 0.42400771 -0.90274471 0.072596818
0.010487606 -0.018918825 -0.0081255995 0.14475137 -0.98946321 -0.003223984
0.0113913 -0.018812671 -0.0083785262 0.63308465 -0.77276516 0.045154296
0.011037564 -0.018684473 -0.0052945912 0.5102092 -0.85785645 0.061398208
0.011933417 -0.017732697 -0.0042206044 0.87133598 -0.48878214 0.043202609
-4.2201667e-05 -0.026786905 0.009385189 -0.0024325703 -0.99885869 0.0477111
0.010455932 -0.018655278 -0.0022481589 0.32723454 -0.94137585 -0.082036749
0.0014581692 -0.026461411 0.012862056 0.099580854 -0.9928931 0.065176144
0.0033545136 -0.025916172 0.012995772 0.32047147 -0.94521362 0.062211987
0.0046568792 -0.025434857 0.013759779 0.49327672 -0.86570972 0.085003614
0.0032541014 -0.025998481 0.014709231 0.28266156 -0.95635104 0.074135408
0.00817791 -0.023102714 0.0096078692 0.73686939 -0.67253357 0.068725236
0.0075817145 -0.023508677 0.012659782 0.65777558 -0.74949771 0.074735917
0.0096416911 -0.021463808 0.010877706 0.81092227 -0.58265811 0.053995445
0.008777583 -0.022176202 0.014217003 0.72801054 -0.6826632 0.063028745
0.0038242997 -0.025350429 0.018508263 0.40756625 -0.90863031 0.091003336
0.0097784176 -0.020783788 0.013168504 0.84450001 -0.53524178 0.018350644
0.0046630567 -0.024691217 0.021451592 0.41848046 -0.90497124 0.076825641
0.0069189668 -0.023666875 0.017996933 0.65493017 -0.75371289 0.054629911
0.0086905528 -0.021936169 0.016941821 0.72376949 -0.68716502 0.062952809
0.0079617174 -0.022456793 0.019248879 0.68442678 -0.72481954 0.078724921
0.010647617 -0.019526249 0.016385289 0.87664509 -0.48012146 0.031270228
0.0096280845 -0.021292465 0.014454789 0.79572833 -0.60400605 0.044653792
0.0098597547 -0.020463098 0.017279493 0.79064673 -0.60940737 0.059171032
0.0078578731 -0.022347935 0.02347354 0.66422349 -0.7446717 0.065361783
0.0091642346 -0.021257121 0.020663373 0.7255426 -0.68748361 0.030907935
0.009797927 -0.020463008 0.022450695 0.77837753 -0.62463576 0.06292437
0.0063154432 -0.023346957 0.025386527 0.56432498 -0.82244837 0.071532041
0.011644914 -0.017198203 0.016672529 0.9202826 -0.3893179 0.038890183
0.010349859 -0.019658722 0.019682208 0.87263942 -0.48790818 0.021141937
0.0073301634 -0.022441298 0.026953341 0.64775622 -0.76037288 0.047391433
0.0063876244 -0.022889517 0.031011211 0.56327903 -0.82383788 0.063314468
0.0026924147 -0.024451073 0.03321109 0.31153646 -0.94783205 0.067531236
0.0034466782 -0.024621777 0.03077269 0.37792727 -0.92185748 0.085736908
0.0092232358 -0.020650152 0.025288034 0.73350996 -0.67712015 0.058927771
0.010613004 -0.019082187 0.023298692 0.87245482 -0.48770893 0.031040117
0.0096942205 -0.020242987 0.027269298 0.75459772 -0.65583807 0.021443386
0.0033348417 -0.024298692 0.035914339 0.37644479 -0.92480451 0.055018369
0.002063703 -0.024583831 0.03562393 0.20131265 -0.97609407 0.081942134
0.0076374505 -0.022015993 0.03077138 0.64493179 -0.76264274 0.049397651
0.0037574249 -0.023827657 0.037669718 0.40501693 -0.91110218 0.076519035
0.010912483 -0.018308852 0.02768214 0.87752736 -0.47823623 0.035169922
0.010194718 -0.019279122 0.031679407 0.85163957 -0.52285284 0.036547776
0.0088681765 -0.020902423 0.030894833 0.71171016 -0.7004087 0.053826775
0.0024708435 -0.024252106 0.038972456 0.27224284 -0.96004194 0.064841375
0.0098361438 -0.019613385 0.0344113 0.75643426 -0.6484732 0.085385159
0.0081301481 -0.021218127 0.033945084 0.64517939 -0.76033878 0.075029798
0.011399101 -0.016911749 0.030139569 0.93839151 -0.34308529 0.041411959
0.0089626238 -0.02022443 0.035895735 0.73060817 -0.68056488 0.055175032
0.0075112977 -0.021515362 0.037504066 0.61772758 -0.78487355 0.048858393
0.0066254479 -0.021909395 0.040813319 0.57369071 -0.81736684 0.052832369
0.0079362458 -0.020922668 0.040753562 0.65467352 -0.75454021 0.045524988
0.004198065 -0.023482639 0.041122701 0.38426542 -0.92063218 0.069119051
0.0089319078 -0.020300111 0.038693275 0.72316116 -0.69008011 0.028781414
0.010674739 -0.018269822 0.034307044 0.88640726 -0.46097866 0.042212047
0.010450032 -0.018175295 0.036853496 0.83209968 -0.55387884 0.028793773
0.011377051 -0.016726738 0.034789309 0.95679766 -0.28964829 0.025357991
0.010316907 -0.018746469 0.038646329 0.82374871 -0.56682241 0.012298829
0.0066426075 -0.021834161 0.042944867 0.53922457 -0.84032643 0.055581398
0.0081371907 -0.020611484 0.043993287 0.637532 -0.76904583 0.046070088
0.01071987 -0.017665105 0.040380348 0.90617102 -0.42281991 0.008863016
0.0099293366 -0.01884724 0.040760193 0.77420348 -0.63054103 0.055026814
0.0093018105 -0.019636126 0.042947114 0.76639217 -0.64169055 0.029619634
0.0084246751 -0.020188529 0.046242297 0.69566375 -0.71830457 0.0095635634
0.0076410696 -0.020879554 0.047554627 0.57558316 -0.81613165 0.051323663
0.011246331 -0.01686587 0.042287782 0.90908039 -0.41503608 0.03631765
0.0093716206 -0.019225743 0.04588769 0.7414102 -0.67055011 0.025969243
0.009036229 -0.019677054 0.048779827 0.68069589 -0.73117143 0.045193862
0.0034488966 -0.022832064 0.055087201 0.37457016 -0.92562741 0.053964458
0.0049286028 -0.022392234 0.051269758 0.49205714 -0.87001985 0.030758779
0.0059251306 -0.021464532 0.055250391 0.52148253 -0.8515017 0.054788001
0.0047522993 -0.022222934 0.055557959 0.47925395 -0.87537706 0.063495986
0.009676259 -0.018967245 0.047691327 0.83852983 -0.5437333 0.034968801
0.0071736551 -0.020908535 0.050401691 0.55805409 -0.82857496 0.04516755
0.0019526627 -0.023344237 0.055552196 0.25695026 -0.96563584 0.039051559
0.0097883232 -0.018493041 0.050858822 0.80947214 -0.58565336 0.042021181
0.0070527648 -0.02093995 0.053354394 0.58232892 -0.81162399 0.046480857
0.0086427508 -0.019759744 0.051574253 0.66493809 -0.74494427 0.054003116
-0.0011396753 -0.023662122 0.062112618 0.16472296 -0.98591572 0.028938496
0.0071265381 -0.020644356 0.056809835 0.58212572 -0.81209582 0.04038338
0.0045426255 -0.02210436 0.058151763 0.45076865 -0.89158905 0.043331437
0.0056412295 -0.021476682 0.059305254 0.50913334 -0.86012578 0.031108538
0.010420166 -0.017528031 0.050789479 0.88830036 -0.45892534 -0.017637571
0.0089250365 -0.019325968 0.05361319 0.69426781 -0.71882826 0.035766833
0.0017722694 -0.023041528 0.063233525 0.25041318 -0.96771115 0.028799357
0.011017231 -0.015983699 0.050840009 0.96123159 -0.27572146 -0.0035346807
0.0083138943 -0.019697636 0.057926379 0.64841866 -0.75990617 0.045791116
0.0069197477 -0.020621967 0.060211368 0.60663831 -0.79444122 0.02922246
0.01131953 -0.01583655 0.052764948 0.95604855 -0.29185829 0.028123122
0.0032788056 -0.022567652 0.062836379 0.41349542 -0.90958798 0.040893231
0.010710048 -0.016531408 0.056201655 0.96873415 -0.23737064 0.072183147
0.010251574 -0.017737495 0.053351067 0.83971816 -0.54190809 0.034781836
0.0021169626 -0.022857789 0.065891944 0.35575479 -0.9344191 0.017336244
0.010419201 -0.016902115 0.05819628 0.9045971 -0.42617029 -0.0091700405
0.0096088089 -0.018514074 0.056914758 0.79616356 -0.60391718 0.037531253
0.0089233685 -0.018917305 0.060320504 0.69443816 -0.71834838 0.041621927
0.0069567845 -0.020502454 0.064316258 0.58196366 -0.81237245 0.037015814
0.0051060049 -0.021571074 0.065192789 0.45405188 -0.8903051 0.034564588
0.0096795866 -0.017932829 0.061710719 0.8180818 -0.57359207 0.041656293
0.001291812 -0.02320924 0.067988485 0.23761204 -0.97059733 0.038500443
-0.00045479348 -0.023123428 0.071316659 0.10731272 -0.9751271 0.19393827
0.0027705391 -0.022686163 0.071172327 0.30043995 -0.95159334 0.064860612
0.0087863104 -0.019032938 0.063617267 0.69997346 -0.7136023 0.028459089
0.0035103741 -0.021941707 0.074009523 0.24911274 -0.95323288 0.1711459
-0.0011237154 -0.02266378 0.072925031 0.054928988 -0.95378655 0.29542333
0.0083671184 -0.019138033 0.067875907 0.7023657 -0.71124303 0.028578047
0.0061626462 -0.020826302 0.071262658 0.53273904 -0.84599954 0.021790797
0.0043104608 -0.021892857 0.071618877 0.49757019 -0.86633575 0.043440733
0.0034629731 -0.022181295 0.072676003 0.23426107 -0.95359993 0.18912971
0.0012968135 -0.022052551 0.074353784 0.080725566 -0.95999587 0.26812726
0.0078010797 -0.019588415 0.069900922 0.64340007 -0.76501673 0.02804967
0.0051617315 -0.021385197 0.073859088 0.41644013 -0.90713644 0.060680002
0.0033035919 -0.021572931 0.07588008 0.11727026 -0.97153664 0.20582816
0.0099951541 -0.017379839 0.065660551 0.86690241 -0.49787286 0.024571029
0.0068514193 -0.020182448 0.073258974 0.59149289 -0.80608493 0.019082574
0.0062703378 -0.020889197 0.10017487 0.73386467 -0.67839921 0.034902107
0.0074100117 -0.018907068 0.10120009 0.9761309 -0.18179464 0.11882843
0.0096676936 -0.01788467 0.068777263 0.85796696 -0.51177675 0.044476949
0.0089567434 -0.017177332 0.088556409 0.96971631 0.22689809 0.090379693
0.0086182319 -0.018738143 0.0710425 0.72076708 -0.69234788 0.033914544
0.0057760552 -0.020803118 0.078014925 0.33086017 -0.93958145 0.087858669
0.004618505 -0.021162029 0.077629477 -0.34513697 -0.77173185 0.53414547
0.0072728908 -0.019992556 0.075178519 0.60255384 -0.79803973 0.0078902962
0.0095277736 -0.017641837 0.07166598 0.86383247 -0.50288326 0.03004623
0.007992629 -0.01918648 0.077410936 0.6997624 -0.71413356 0.018623559
0.0068880185 -0.020119311 0.079871848 0.58839434 -0.80855775 0.0052279723
0.0077268579 -0.019428266 0.091144383 0.83201325 -0.55402184 0.028539211
0.0086534768 -0.018728631 0.073494464 0.74786115 -0.66338998 0.024870347
0.0089253029 -0.018145787 0.078354098 0.80969512 -0.58685124 0.00064298784
0.0060008611 -0.021040617 0.093735322 0.47846663 -0.87769324 -0.026931867
0.0066338466 -0.020424966 0.097252786 0.71872199 -0.69528556 -0.0042091236
0.0098362463 -0.016985869 0.07528118 0.92956561 -0.36355132 0.061148494
0.0060812701 -0.020589348 0.080613039 0.024737639 -0.99959064 0.014405977
0.0059517832 -0.020644631 0.082700431 0.22566812 -0.9737919 -0.028357774
0.0027086937 -0.021568624 0.098132119 -0.34041852 -0.92466611 -0.17061311
0.0073739276 -0.019850472 0.08256755 0.67469871 -0.73795819 0.014153812
0.011152343 -0.019936273 -0.026640978 -0.027158696 -0.99641138 0.080172673
0.010419794 -0.017098667 0.059787344 0.92827576 -0.36700425 0.060107082
0.010576183 -0.017684117 0.045572434 0.88391155 -0.46450022 0.054231867
0.011751998 -0.016779276 0.019169781 0.92063046 -0.39006644 0.016995225
0.010921377 -0.01904388 0.012916636 0.87965691 -0.47498718 0.02433235
