# .PCD v0.7 - Point Cloud Data file format
VERSION 0.7
FIELDS x y z normal_x normal_y normal_z
SIZE 4 4 4 4 4 4
TYPE F F F F F F
COUNT 1 1 1 1 1 1
WIDTH 666
HEIGHT 1
VIEWPOINT 0 0 0 1 0 0 0
POINTS 666
DATA ascii
-0.013850505 -0.08746586 0.077095486 -0.14164791 0.19735974 0.97004426
-0.0080927638 -0.085733712 0.077834472 -0.12734549 0.1309043 0.98318267
-0.010461269 -0.087414071 0.077678248 -0.15460378 0.18839386 0.96984857
-0.0034819685 -0.087597497 0.078603789 -0.10934372 0.13642508 0.98459798
-0.0058476632 -0.086981155 0.07826335 -0.13032638 0.14340925 0.98104525
-0.016270947 -0.08978837 0.077267416 -0.12234108 0.13392085 0.98341185
-0.008436677 -0.087288335 0.077833518 -0.12934831 0.16297202 0.97811562
-0.0025177167 -0.08849968 0.078822784 -0.12685257 0.17896785 0.97564334
-0.00079360459 -0.088110745 0.079024978 -0.17200889 0.16349348 0.97143394
-0.018741589 -0.089324392 0.076800689 -0.16078205 0.12826943 0.97861999
-0.0077144378 -0.089375928 0.078405418 -0.14376038 0.21725199 0.96547168
-0.018539999 -0.090855338 0.077077836 -0.10869269 0.1331799 0.98511422
-0.014470415 -0.090228297 0.077547677 -0.15714508 0.17010517 0.97281581
-0.0089014499 -0.091158703 0.078744136 -0.15443219 0.16556284 0.97403312
-0.004927984 -0.08945594 0.078765437 -0.10851187 0.18414831 0.9768908
-0.00053696777 -0.09076529 0.079465814 -0.14388569 0.183764 0.97238302
-0.016567335 -0.092217296 0.077441551 -0.13068865 0.12632911 0.98334241
-0.010927008 -0.091442674 0.078432463 -0.14815405 0.16863152 0.9744817
-0.0059490125 -0.092111707 0.07911551 -0.1107627 0.20741077 0.97196364
-0.0037348603 -0.091056332 0.079284616 -0.11830479 0.20612352 0.97134858
-0.012653905 -0.09128046 0.078061447 -0.16969913 0.12074255 0.97807181
-0.0079556294 -0.092444055 0.079109527 -0.14765307 0.12896998 0.98059487
-0.0063031563 -0.093208872 0.079405017 -0.12906 0.095554836 0.9870227
0.00068567804 -0.092193343 0.080014668 -0.14313538 0.19434948 0.97043365
-0.01874556 -0.094446965 0.077625334 -0.087675273 0.1864855 0.97853827
-0.010937069 -0.093090147 0.078346916 -0.16561893 0.16198479 0.97279614
-0.0022956899 -0.092661105 0.07983043 -0.12321958 0.15600573 0.98004085
-0.015483645 -0.093735196 0.077795133 -0.12258191 0.16534843 0.97858804
-0.010230751 -0.094601087 0.078798197 -0.18864694 0.13544004 0.9726609
-0.0049608853 -0.094355665 0.079495616 -0.10115411 0.052012987 0.99351066
-0.018454563 -0.09603937 0.078069501 -0.098376803 0.17391378 0.97983521
-0.010948479 -0.096891873 0.079253368 -0.13866156 0.17498183 0.9747591
-0.0071318462 -0.095775351 0.079501078 -0.13194148 0.17807978 0.9751308
-0.015802244 -0.097402759 0.078541689 -0.13385594 0.16901124 0.97648287
-0.00066631084 -0.094192997 0.080186926 -0.14279626 0.14016353 0.97977775
-0.0058720731 -0.097198568 0.079932623 -0.10367814 0.20938349 0.97232217
-0.0037291769 -0.095067821 0.079764411 -0.14661038 0.15541276 0.97691
3.5957023e-06 -0.09678629 0.080621146 -0.13298911 0.139461 0.98125714
-0.018531408 -0.099669613 0.078417763 -0.10398822 0.12399191 0.98681992
-0.016069816 -0.09957248 0.078625374 -0.15348718 0.15136944 0.97648859
-0.013661739 -0.097756825 0.079011589 -0.17495532 0.18027657 0.96793181
-0.014339861 -0.099983245 0.079154372 -0.17006753 0.12282946 0.97774792
-0.00804911 -0.098630317 0.080105729 -0.14614421 0.16599983 0.97523689
-0.0022822858 -0.098153874 0.080575958 -0.13103354 0.19893615 0.9712134
-0.010788057 -0.098979719 0.079599224 -0.16467544 0.1453623 0.97557813
-0.0091149639 -0.10031737 0.079926953 -0.18096188 0.09857484 0.9785381
-0.0031775767 -0.10089447 0.081045561 -0.14997786 0.10606182 0.98298448
-0.00082370307 -0.10070349 0.08144398 -0.13046373 0.14981639 0.98006904
0.0004112747 -0.10164683 0.081646077 -0.1362348 0.068944283 0.98827511
-0.013063774 -0.1009059 0.079418205 -0.14138301 0.13369589 0.98088598
-0.0060158777 -0.099635288 0.080460712 -0.12677465 0.16332027 0.97839439
-0.017704686 -0.10313762 0.079199217 -0.13508022 0.12347881 0.98311102
-0.009772053 -0.10206951 0.080025472 -0.13935997 0.11122534 0.98397601
-0.0084821805 -0.10111805 0.080372341 -0.17001037 0.086824961 0.98161036
-0.01481257 -0.10254396 0.079433352 -0.14104858 0.11637687 0.98313922
-0.0050791153 -0.10169934 0.080748178 -0.13188747 0.049968451 0.99000496
-0.014046843 -0.10504343 0.079589188 -0.15161139 0.080513462 0.98515606
-0.012148055 -0.10272758 0.079930604 -0.15329655 0.084501393 0.98456115
-0.0096629756 -0.10403474 0.080392107 -0.11364163 0.090582564 0.98938429
-0.0020086018 -0.10276605 0.081128992 -0.12649956 0.034115154 0.99138033
-0.016082736 -0.10500351 0.079453506 -0.14465469 -0.0030041717 0.98947817
0.00091347384 -0.10383721 0.081475094 -0.14082347 -0.0044456646 0.99002522
-0.010375484 -0.10497817 0.080222465 -0.17282845 0.16838227 0.97045285
-0.012619727 -0.1057539 0.080286108 -0.15321898 0.51259649 0.84484893
-0.0084431432 -0.10539009 0.080815792 -0.1355125 0.39773908 0.90743649
-0.0075671831 -0.10451243 0.080620185 -0.13294789 0.12500812 0.98320836
0.0019298861 -0.10455494 0.08165472 -0.1100648 -0.048590347 0.99273646
-0.0050442633 -0.10514538 0.080998592 -0.11413365 0.10141469 0.98827612
-0.00012537 -0.10526808 0.081636839 -0.10074503 0.12504143 0.98702383
0.0045923404 -0.10466076 0.081842832 0.061499175 -0.066824727 0.99586809
0.0029162322 -0.083436519 0.078263804 0.60373545 0.18355438 0.77576554
0.0017027459 -0.086202517 0.079257719 0.0076459982 0.19250157 0.98126739
0.0033944508 -0.085234568 0.078437589 0.6739257 0.22664599 0.7031762
0.0040813293 -0.088028088 0.077970274 0.85846394 0.18278484 0.47919732
-0.015189245 0.08948008 0.055817705 0.25517038 -0.13709661 0.95712781
-0.013792387 0.086832657 0.055244975 0.098571889 -0.14139298 0.98503435
-0.017375816 0.086537525 0.056123368 0.53516251 -0.12505443 0.83544201
-0.013138442 0.089957677 0.05570351 0.035578605 -0.12151011 0.9919529
-0.011568697 0.08705271 0.055332858 -0.037778016 -0.13325363 0.99036217
-0.0067550116 0.086233623 0.056188121 -0.362881 -0.19149008 0.91194838
-0.016241379 0.085502885 0.055584613 0.26899019 -0.10484071 0.95742035
-0.0094766952 0.085368343 0.055351689 -0.18182623 -0.15037932 0.97176456
-0.014106456 0.084440812 0.054902747 0.16732168 -0.14362399 0.97538537
-0.015519962 0.082257554 0.054899056 0.33716685 -0.10950012 0.93505573
-0.011944008 0.084676065 0.054793295 -0.015497838 -0.15477705 0.98782837
-0.0090556182 0.083816715 0.055223756 -0.2152507 -0.18253016 0.95934916
-0.010918675 0.083201028 0.054636922 -0.051714987 -0.15703705 0.98623824
-0.0094692139 0.082421929 0.05464093 -0.22184661 -0.14264329 0.96459216
-0.016497584 0.07827045 0.054830287 0.37663868 -0.15093394 0.91398209
-0.011047108 0.080391146 0.054339796 -0.08300487 -0.1166301 0.98970127
-0.014449731 0.080040202 0.054417111 0.18875751 -0.12182503 0.97443843
-0.012696263 0.080151841 0.054196749 0.089428566 -0.16954915 0.98145634
-0.013163409 0.077827707 0.053750951 0.0079855276 -0.1529714 0.98819882
-0.0090438705 0.079590559 0.054460853 -0.16817395 -0.15794493 0.97302204
-0.01060262 0.076916665 0.053718299 -0.067778073 -0.16661602 0.98369008
-0.014924414 0.077361844 0.054188058 0.24067265 -0.1363232 0.96098572
-0.016433513 0.075560711 0.054331679 0.55105144 -0.070999339 0.83144599
-0.013392805 0.074341208 0.053404521 0.13829868 -0.14110269 0.98028797
-0.012604245 0.076727882 0.053633001 0.037702937 -0.14995711 0.98797381
-0.015355571 0.074336194 0.053932566 0.33832857 -0.111301 0.93442327
-0.0096211256 0.075393006 0.053503003 -0.15130606 -0.15815066 0.97575402
-0.012236371 0.073614717 0.053282127 0.0032153481 -0.15158351 0.98843974
-0.00896159 0.073419742 0.05336307 -0.15388668 -0.13293505 0.97910577
-0.014762544 0.071215063 0.053165313 0.36939961 -0.15610655 0.91606528
-0.013945643 0.070276394 0.052866202 0.16987833 -0.12953217 0.97691542
-0.012303091 0.070838667 0.052687895 0.02284239 -0.16625834 0.98581803
-0.010403221 0.071173579 0.052935433 -0.10561743 -0.16802877 0.98010826
-0.01613941 0.069014318 0.053381063 0.49435285 -0.10117111 0.86335421
-0.011998419 0.068998322 0.052498057 0.07527218 -0.14746663 0.98619908
-0.0079491958 0.070393153 0.053308111 -0.22176671 -0.1366407 0.96547908
-0.011780648 0.066870987 0.052154955 0.026486643 -0.14855228 0.98855025
-0.016965309 0.06666179 0.053949956 0.56400847 -0.050594527 0.82421821
-0.009575827 0.068565942 0.052451935 -0.13091487 -0.18712734 0.97357363
-0.017459497 0.06542334 0.053956408 0.56977445 -0.13144682 0.81122112
-0.014844558 0.067221574 0.052690491 0.32846797 -0.12485673 0.93622679
-0.013620007 0.064596511 0.051963795 0.17833817 -0.15079816 0.97234577
-0.018302014 0.066149011 0.054901663 0.26292396 -0.11733862 0.95765531
-0.015678227 0.064469069 0.052707095 0.46055001 -0.10601991 0.88128006
-0.017268896 0.064060137 0.053805903 0.55301028 -0.09245801 0.82802904
-0.010705119 0.064895168 0.051846813 -0.040945001 -0.16109683 0.98608935
-0.014651309 0.062865853 0.051978417 0.42530793 -0.11552733 0.89764559
-0.012843962 0.063420169 0.051714547 0.11423073 -0.17719844 0.97752392
-0.010243707 0.062677644 0.051311094 -0.0048074699 -0.17407829 0.98472053
-0.0084709739 0.063936338 0.052061234 -0.19654435 -0.16465104 0.96657199
-0.016211357 0.06021297 0.052528851 0.51348227 -0.059931219 0.85600531
-0.013700626 0.061732493 0.05152674 0.21932065 -0.12587236 0.96749961
-0.0092115374 0.061956909 0.051366273 -0.17863066 -0.1539605 0.97179633
-0.011618271 0.060262904 0.051148873 0.022969455 -0.13110517 0.99110281
-0.018750338 0.059470795 0.053674895 0.28466052 -0.12849127 0.94997859
-0.016797518 0.058956265 0.053020142 0.47765577 -0.12962326 0.86893249
-0.01322961 0.059693415 0.051113639 0.3449488 -0.14602372 0.92719388
-0.010691313 0.059667639 0.051114932 -0.034444448 -0.18397377 0.98232794
-0.012393421 0.058447458 0.050770883 0.13971511 -0.17116044 0.97528702
-0.0089031234 0.058358584 0.050958876 -0.13211234 -0.17725144 0.97525853
-0.017879745 0.057521582 0.053513259 0.54761779 -0.11869039 0.82826817
-0.014744993 0.057876881 0.051275514 0.48052844 -0.16691555 0.86094862
-0.017849961 0.05569442 0.05314308 0.26892379 -0.24730681 0.93087071
-0.014070649 0.056986865 0.051039532 0.35434398 -0.12552291 0.92665285
-0.016525224 0.055367801 0.052108843 0.50869942 -0.092294633 0.85598332
-0.011687378 0.057678591 0.050468225 0.092510059 -0.18759879 0.97788018
-0.014234285 0.05511681 0.050706968 0.37436646 -0.13211474 0.91782159
-0.014834436 0.053760506 0.05100299 0.51537764 -0.083195612 0.85291576
-0.012855144 0.053889472 0.050151665 0.22388481 -0.13215585 0.96561456
-0.0106911 0.056358594 0.05031728 -0.045021646 -0.13840961 0.98935169
-0.0091790212 0.055656206 0.050394736 -0.1075881 -0.18386161 0.97704691
-0.011329628 0.053153306 0.049945995 0.0033547475 -0.1758862 0.98440528
-0.016954476 0.053339802 0.052529559 0.53816891 -0.086418904 0.83839542
-0.014802052 0.050936516 0.050434541 0.4683218 -0.14656395 0.87131774
-0.0097422739 0.052053176 0.04973029 -0.045116667 -0.20754725 0.97718453
-0.0094851125 0.050597258 0.049300477 -0.0031015708 -0.1682438 0.98574102
-0.013136185 0.048739254 0.049413327 0.2874642 -0.13386905 0.94839042
-0.011348693 0.050662093 0.049309392 0.16826154 -0.16750257 0.97140723
-0.0074071805 0.051326606 0.04997078 -0.22432043 -0.17053445 0.95947874
-0.015515313 0.049018715 0.050659806 0.55600184 -0.096700341 0.82553738
-0.014058047 0.049574237 0.049882982 0.3594318 -0.15516411 0.92018151
-0.008798304 0.048622608 0.048942998 -0.13639 -0.18533421 0.97316492
-0.016851842 0.04933399 0.051723246 0.59506196 -0.066090085 0.80095834
-0.01259107 0.046050597 0.048815273 0.24224974 -0.15476178 0.95779163
-0.016722644 0.046970956 0.051534209 0.66737586 -0.070207842 0.74140495
-0.015257108 0.045920856 0.05001545 0.51109874 -0.11855096 0.85130757
-0.010092881 0.046848599 0.048807383 0.047010913 -0.19274908 0.98012179
-0.016311524 0.045527443 0.050903026 0.68648255 -0.051049892 0.72535276
-0.011974673 0.044847041 0.048439097 0.24746592 -0.19372365 0.94933277
-0.007658449 0.046674572 0.04882485 -0.14834513 -0.18768035 0.9709639
-0.016593462 0.043894604 0.051137581 0.67531174 -0.09710978 0.731112
-0.014655489 0.042978138 0.049296815 0.54062855 -0.11231716 0.83373046
-0.013130427 0.042538892 0.048400499 0.35246292 -0.12964441 0.92680269
-0.016831167 0.04092906 0.050721347 0.6040737 -0.14906785 0.78286308
-0.0095069846 0.043024886 0.047987387 -0.059323665 -0.099851884 0.99323279
-0.0094074877 0.040646758 0.047705062 -0.020415895 -0.20139909 0.97929692
-0.012142934 0.041243814 0.047884092 0.2142505 -0.14859022 0.96541113
-0.0085233059 0.042902712 0.048062854 -0.072581947 -0.16748869 0.983199
-0.013461207 0.0397733 0.048161022 0.4517743 -0.1680983 0.87615299
-0.011796399 0.039622728 0.047508687 0.21360493 -0.17210272 0.96164155
-0.0079674534 0.042018838 0.04783114 -0.085878201 -0.19739331 0.97655606
-0.014951815 0.039914113 0.049191635 0.52558321 -0.11247855 0.84327447
-0.0068993596 0.039685201 0.047676433 -0.14640675 -0.17020091 0.974473
-0.0076328488 0.037111346 0.046979792 -0.17407405 -0.189255 0.96637559
-0.015398411 0.037068449 0.049312975 0.5587936 -0.098003827 0.8234961
-0.014064387 0.037450131 0.048147004 0.51011294 -0.12117319 0.85152966
-0.012457361 0.035986055 0.047185756 0.27493644 -0.13053933 0.95255995
-0.0046487213 0.038825955 0.048044857 -0.32369149 -0.17158782 0.9304744
-0.0095231729 0.03664377 0.046914835 0.06683284 -0.15456434 0.98572016
-0.016067822 0.034886327 0.049352169 0.42184612 -0.17079145 0.89043647
-0.01414865 0.034915991 0.047849409 0.56300265 -0.12355947 0.81716698
-0.013421401 0.032870747 0.047136046 0.45023745 -0.11618516 0.88531816
-0.010796933 0.031991471 0.04588769 0.14670931 -0.16467901 0.97537595
-0.015907003 0.032905925 0.048927832 0.59016806 -0.086251236 0.80266011
-0.012453233 0.031868458 0.046492871 0.42368376 -0.16346873 0.89093834
-0.014450918 0.031053234 0.047694866 0.56655097 -0.090383962 0.81905532
-0.010426123 0.030280894 0.045771889 0.14303133 -0.15053479 0.97820365
-0.012585787 0.029538436 0.046268705 0.41628164 -0.12922625 0.90000623
-0.0088215023 0.028736187 0.045360867 -0.034425136 -0.17383024 0.98417425
-0.01584213 0.028133756 0.048266422 0.27938867 -0.23555371 0.93083692
-0.014354862 0.028251965 0.04725939 0.57697749 -0.14002286 0.80466855
-0.013641409 0.027128397 0.046426553 0.48132786 -0.13437381 0.86618018
-0.010488565 0.026816707 0.045045312 0.20694534 -0.15577945 0.96587127
-0.013065651 0.025396558 0.045886733 0.50180608 -0.091093265 0.86017066
-0.0048465258 0.025631608 0.045179255 -0.26050472 -0.21026222 0.94229937
-0.011749149 0.02418044 0.045105875 0.3623383 -0.15958981 0.91828269
-0.01062907 0.023437757 0.044379521 0.21498743 -0.29542261 0.93086356
-0.014704899 0.023599437 0.046915255 0.51188475 -0.12319224 0.85017562
-0.014630535 0.019834185 0.046322897 0.56720352 -0.12645641 0.8138119
-0.013606751 0.021896437 0.045706965 0.5748902 -0.1212119 0.80920321
-0.012067045 0.022699164 0.044930842 0.47442093 -0.15593567 0.86637735
-0.010318981 0.02177006 0.044010602 0.2779009 -0.15432124 0.94813341
-0.0085110189 0.023832368 0.0444692 0.060667709 -0.2102492 0.9757641
-0.015589499 0.020810124 0.04690231 0.36147934 -0.1189305 0.92476445
-0.0088826809 0.021131229 0.043805134 0.026400872 -0.17691882 0.98387176
-0.012583846 0.018407097 0.044630606 0.49506548 -0.12358049 0.8600226
-0.010534035 0.018618153 0.043627359 0.30369309 -0.13331401 0.94339746
-0.012189997 0.015833896 0.043911483 0.51514125 -0.14777833 0.84427011
-0.014837527 0.016217493 0.045739111 0.49121776 -0.11743889 0.86308402
-0.0099352188 0.017080186 0.043361686 0.17900248 -0.19844697 0.96362746
-0.010330744 0.015719907 0.042846948 0.25942019 -0.19727437 0.94540203
-0.014735349 0.014046247 0.045570254 0.2387183 -0.15291695 0.95897388
-0.0078954985 0.015050842 0.042561986 0.034190666 -0.17676075 0.98366028
-0.012481698 0.01338608 0.043700408 0.54950595 -0.10275456 0.82914752
-0.010407401 0.01299677 0.042651452 0.28480169 -0.14972998 0.94682091
-0.0079417396 0.013550316 0.042262007 0.06126995 -0.1810341 0.98156691
-0.0098520471 0.011155685 0.04214853 0.17713292 -0.19088715 0.96549833
-0.010944069 0.0096164448 0.042157385 0.43735722 -0.16324522 0.88434762
-0.0073818918 0.011047885 0.041843917 -0.019786177 -0.2204587 0.97519612
-0.0135467 0.011767708 0.044501342 0.59646261 -0.15493682 0.78754544
-0.012847282 0.0094813686 0.043346964 0.57817173 -0.1457638 0.80278957
-0.01455518 0.0093035689 0.044505186 0.30133319 -0.14799671 0.94196409
-0.0090365512 0.0099483635 0.041687742 0.18549214 -0.2537103 0.9493286
-0.013617731 0.0079630977 0.043997515 0.63873404 -0.094428189 0.76361191
-0.011457497 0.0070789359 0.041918997 0.4615038 -0.13721898 0.87646228
-0.01300549 0.0057181739 0.042932332 0.58679533 -0.11216135 0.80193013
-0.009098392 0.0066619078 0.041196238 0.20863986 -0.19273655 0.95881331
-0.0097957551 0.0056589255 0.040918071 0.33282903 -0.18565005 0.92453229
-0.0073641986 0.0064179529 0.040895417 0.035521515 -0.20650578 0.97780085
-0.013870538 0.00508415 0.043443259 0.23862971 -0.13308942 0.9619481
-0.011024542 0.00422118 0.041214962 0.55162275 -0.13195954 0.82358962
-0.0078110551 0.0050347182 0.040488217 0.13704056 -0.23066881 0.9633342
-0.012445338 0.0038887195 0.042548705 0.59835839 -0.12139764 0.79197896
-0.010193999 0.0031228208 0.040792767 0.33988667 -0.12445627 0.93219566
-0.011905148 0.0021339126 0.041513748 0.55585915 -0.15123051 0.81740493
-0.0085366536 0.0030316326 0.040099733 0.24952336 -0.15570107 0.95577002
-0.013249623 0.001031155 0.042600352 0.25866565 -0.18814792 0.94746685
-0.0097876908 0.0012899737 0.040394217 0.32067686 -0.18976174 0.92798591
-0.011481017 -0.00018819018 0.040731452 0.55949128 -0.12981576 0.81860751
-0.0095761903 -0.00040145652 0.039633583 0.40358907 -0.17025521 0.89896053
-0.0076295142 0.00076680654 0.039750293 0.1398643 -0.2462296 0.95906723
-0.012462704 -0.00092004496 0.041672345 0.57768744 -0.10235269 0.809816
-0.0088362768 -0.0014360852 0.039294317 0.2629205 -0.18136209 0.9476189
-0.007208772 -0.0027503108 0.038759511 0.099804558 -0.18252091 0.97812372
-0.011836638 -0.0023832589 0.04075285 0.59033686 -0.17651546 0.78762013
-0.010258705 -0.0022541711 0.039886549 0.5002749 -0.14786951 0.85314745
-0.013089848 -0.0031318581 0.041811846 0.21434051 -0.19560085 0.95697415
-0.009359302 -0.0032565447 0.03923253 0.34942892 -0.14870779 0.92508721
-0.011927 -0.0045190887 0.040464234 0.59305978 -0.11432959 0.79700047
-0.0085964687 -0.0054030963 0.038573869 0.29692996 -0.20667325 0.93226588
-0.010780866 -0.0057643205 0.0395533 0.50797737 -0.15793137 0.84676886
-0.012991562 -0.0057789925 0.041290272 0.51683378 -0.16482058 0.84007025
-0.0076323086 -0.0068480596 0.037854843 0.18724918 -0.23702623 0.95328766
-0.011091705 -0.0079456596 0.039164446 0.54837203 -0.14593691 0.82340235
-0.011336154 -0.0095424997 0.039488915 0.57130605 -0.12372329 0.81135857
-0.01298046 -0.0086671207 0.04065365 0.60845369 -0.11196789 0.78565145
-0.0094342176 -0.0089940475 0.038105458 0.38575989 -0.12642954 0.91389602
-0.0075809052 -0.0092537878 0.037741296 0.23130712 -0.20843101 0.95029181
-0.0059400722 -0.01000517 0.037356406 0.13704115 -0.18782024 0.97259665
-0.011594358 -0.012283221 0.039032549 0.60206854 -0.098131441 0.79239172
-0.0101364 -0.011481614 0.038034137 0.50104403 -0.19245096 0.84375256
-0.0082358252 -0.011507796 0.036975224 0.23165961 -0.22386187 0.94668937
-0.012419932 -0.013375622 0.039568145 0.55251813 -0.19271819 0.81091571
-0.0060596834 -0.013317385 0.036234628 0.092955813 -0.20435342 0.97447413
-0.009195595 -0.013923848 0.037032098 0.40671796 -0.12324632 0.90520269
-0.0079290159 -0.014334571 0.036556467 0.30692086 -0.18572001 0.9334392
-0.010923328 -0.014932552 0.03815357 0.52792311 -0.18030417 0.82993275
-0.010039147 -0.017763002 0.036781657 0.56602168 -0.14090624 0.81225973
-0.0085847955 -0.016258655 0.036203727 0.33505854 -0.2201632 0.91611409
-0.0083998451 -0.020600896 0.035412252 0.34308949 -0.17777455 0.92232686
-0.011729058 -0.020522263 0.037862591 0.51273698 -0.13936199 0.84715992
-0.01097555 -0.019620353 0.037381794 0.62455839 -0.09432479 0.77526158
-0.0096221743 -0.020784482 0.036136616 0.59423077 -0.14545418 0.79103333
-0.010911569 -0.02136334 0.036990393 0.60980725 -0.15812536 0.77661604
-0.0086531807 -0.021964991 0.03502823 0.38375935 -0.20221034 0.90102208
-0.011522902 -0.023853168 0.036964644 0.58198285 -0.12636949 0.80332291
-0.010693622 -0.025230251 0.036310982 0.60580951 -0.12735613 0.78535098
-0.0065874057 -0.022882633 0.034213625 0.22124813 -0.206966 0.95300335
-0.0094972616 -0.023500793 0.035476815 0.53163397 -0.12485275 0.83772194
-0.00912988 -0.026990734 0.034609895 0.54681003 -0.1940511 0.81445932
-0.0075332099 -0.027332656 0.033502992 0.38991719 -0.20482586 0.89778173
-0.011325153 -0.027236298 0.03628106 0.57976371 -0.2013894 0.78950441
-0.0098131252 -0.028915346 0.034630198 0.54957575 -0.15857527 0.82025683
-0.0072679776 -0.03049276 0.032772619 0.37814176 -0.2191845 0.89942646
-0.011282166 -0.029417874 0.035617754 0.58492565 -0.13985682 0.79893857
-0.010209335 -0.031257242 0.034760259 0.61923385 -0.12782237 0.77473336
-0.0082294708 -0.032153856 0.032923806 0.53524637 -0.16460906 0.82850236
-0.01104202 -0.033024743 0.034831274 0.60762566 -0.15900105 0.77814555
-0.0055100662 -0.033486437 0.031463668 0.24149425 -0.19868311 0.94984555
-0.0058650612 -0.031784661 0.032023061 0.25020555 -0.21129121 0.94485676
-0.0086559448 -0.033927724 0.032838851 0.48865625 -0.13210306 0.86241788
-0.0057235388 -0.03503678 0.03140768 0.30469924 -0.1930868 0.9326719
-0.0096026463 -0.035092816 0.033582073 0.64401954 -0.10933918 0.75715566
-0.0085015278 -0.035734575 0.032483552 0.52023631 -0.20879738 0.82810557
-0.0076572695 -0.037060946 0.031536017 0.40703738 -0.22633159 0.88492692
-0.010251931 -0.039905563 0.032991946 0.57895643 -0.13504045 0.80409849
-0.0091767972 -0.03852478 0.032276571 0.57749832 -0.14063396 0.80418819
-0.0073306123 -0.038632635 0.031096697 0.4262481 -0.16786306 0.88889563
-0.0088386172 -0.041830927 0.031565838 0.6329909 -0.17154793 0.75491381
-0.0086831544 -0.039897908 0.031858977 0.52717865 -0.15760288 0.83501196
-0.0055500758 -0.04030703 0.030001221 0.33758432 -0.20974945 0.91762906
-0.0081246542 -0.042251647 0.030675108 0.50669521 -0.19803655 0.83907229
-0.0091193253 -0.043506768 0.031404622 0.57267612 -0.14204761 0.80738181
-0.0055629639 -0.044345222 0.029210094 0.41115829 -0.18414627 0.89277101
-0.0067477906 -0.045562781 0.029279297 0.51201487 -0.21567109 0.83146119
-0.0092961797 -0.045558285 0.031193461 0.5973587 -0.20148587 0.77625185
-0.0079681231 -0.046960983 0.029683139 0.54933292 -0.20539966 0.80996621
-0.0089553287 -0.048104178 0.030163093 0.59825742 -0.13941996 0.78908235
-0.0075057698 -0.048903052 0.029021181 0.51667535 -0.12362257 0.84721005
-0.0084898956 -0.050608672 0.029633889 0.56678396 -0.21927615 0.79415029
0.00092299352 -0.087406062 0.028743787 -0.18888818 0.15560919 0.96959168
-0.0087355366 -0.052035637 0.029211609 0.60162622 -0.13327198 0.78758198
-0.0072191069 -0.052781627 0.027660677 0.53624529 -0.19474764 0.82128876
-0.0087853065 -0.055914659 0.028539289 0.64109331 -0.16598804 0.74929857
-0.0075703599 -0.055088919 0.028045399 0.60451669 -0.16529544 0.77925479
-0.007593812 -0.05671607 0.027027622 0.60422522 -0.17427747 0.77752179
-0.008085859 -0.060005076 0.027371174 0.69231689 -0.097846039 0.71492964
-0.0083047673 -0.061293535 0.026905946 0.54963976 -0.27519011 0.78877598
-0.0059487377 -0.061041862 0.025352009 0.48710734 -0.12193486 0.86478853
-0.0059858225 -0.064980999 0.025153913 0.20937182 -0.08736027 0.97392637
-0.0070973225 -0.066425882 0.024885466 0.052067731 -0.11433411 0.99207741
-0.027627511 0.10849625 0.082233496 -0.85317302 -0.063270517 0.5177775
0.0031123811 -0.088167571 0.079494037 0.48952863 0.19409961 0.85011053
0.0024303389 -0.090857729 0.08012034 0.11405198 0.17840463 0.97732538
0.0016099925 -0.089261606 0.079791151 -0.14400986 0.15667556 0.97709513
0.0042453744 -0.090489902 0.078887485 0.84251815 0.20595799 0.49774012
-0.01000345 0.15173364 0.082539342 -0.58359736 0.015989117 0.81188619
-0.01118642 -0.07297872 0.024273032 -0.39923158 0.14171667 0.90583193
-0.027544778 0.11319272 0.082709998 -0.70851612 -0.032388225 0.70495176
-0.018428868 0.096023433 0.053674579 -0.45788726 0.097582154 -0.8836391
-0.025763512 0.15783103 0.081776209 0.34972712 0.053423338 0.93532771
-0.0055483738 0.16233119 0.085100383 0.24924818 0.4389284 0.86326015
-0.019818276 0.15182465 0.080302045 0.063632801 -0.022203317 0.9977268
-0.0042785285 0.15412629 0.085784249 0.58651108 0.058682248 0.80781311
-0.017619081 0.15153064 0.0806363 -0.14306769 0.15296163 0.97782177
-0.019414725 0.14960627 0.079882853 0.045693211 -0.17745018 0.98306894
-0.026049076 0.14745925 0.082365431 0.35137326 0.052167673 0.93478143
-0.021250358 0.15074013 0.080463417 0.2647655 -0.01359817 0.96421748
-0.024008082 0.1482349 0.081307895 0.4014886 0.023809923 0.91555506
-0.025837762 0.14567277 0.082451396 0.31433052 0.058604594 0.94750345
-0.023858124 0.14607967 0.081401207 0.47236553 0.047445063 0.88012546
-0.025808297 0.14347139 0.082490116 0.33841607 0.054603007 0.93941158
-0.023877118 0.14253215 0.081815742 0.50105512 0.01026189 0.86535501
-0.027129628 0.14134648 0.082951978 0.15259415 0.0084672635 0.98825318
-0.026128123 0.13921639 0.082875781 0.25448087 0.044740312 0.96604288
-0.025864996 0.13468887 0.082850724 0.28616235 0.01181771 0.95810872
0.0037494537 -0.092615493 0.080141455 0.46343258 0.21826915 0.85883039
0.0021772203 -0.093396962 0.080499664 -0.084606059 0.1529232 0.9846102
-0.023915285 0.13477494 0.081919461 0.48275587 0.031674087 0.87518263
-0.0049039559 0.13681071 0.086440831 -0.17254756 -0.0017773472 0.98500013
-0.0010612891 0.13187931 0.0660237 0.96960694 -0.025881816 0.24329714
-0.027434332 0.13231443 0.083179399 -0.19162866 -0.016895654 0.98132253
-0.026099984 0.13155006 0.082902573 0.26120016 -0.026666092 0.96491677
-0.023906128 0.13183805 0.082089461 0.47289261 0.026482087 0.88072264
-0.0022702967 0.13017948 0.066647865 0.12689224 -0.11487626 0.98524249
-0.027215445 0.12742166 0.083089404 -0.2165955 0.043822162 0.9752779
-0.024927204 0.12935871 0.082635805 0.31309828 0.03829848 0.94894874
-0.022204183 0.12982313 0.080869555 0.85094929 0.033337049 0.52418977
-0.0020062171 0.12793127 0.066388786 0.22761002 -0.1096986 0.96755409
-0.023489257 0.12651287 0.082038902 0.47187978 0.02603898 0.88127887
-0.023453621 0.12470853 0.081954129 0.55201775 0.013992314 0.8337155
-0.0030227618 0.1298082 0.085306652 0.92941308 0.015840797 0.36870241
-0.023662893 0.12331747 0.082370497 0.47257748 0.012163185 0.88120574
-0.0043928525 0.12874115 0.086649366 0.28859624 0.02810495 0.95703882
-0.024388535 0.11970275 0.082478754 0.47200009 -0.031564571 0.88103384
-0.02326153 0.11762429 0.081951506 0.61405474 0.027414547 0.78878772
-0.0032155879 0.12226555 0.086040713 0.80001068 0.042034637 0.59851223
-0.0035245267 0.11980106 0.086508878 0.50954616 0.023121074 0.86013317
-0.0013758504 0.11471218 0.064831875 0.31729534 -0.096148796 0.9434405
-0.023103535 0.11414783 0.082108557 0.49437422 0.048837386 0.86787659
-0.022539856 0.1127256 0.081516936 0.81284225 0.045861356 0.58067632
-0.0044628177 0.11679521 0.086600952 -0.18731602 -0.030851653 0.98181558
-0.0029431088 0.11746539 0.086091168 0.8359946 0.026599009 0.54809332
-0.0016852586 0.11052104 0.064568505 -0.03688807 -0.13717119 0.98986083
-0.0031416186 0.11508248 0.086164996 0.58738738 0.0023893316 0.80930299
-0.0020777839 0.10826016 0.063810565 -0.46890533 -0.141169 0.87189454
-0.022828439 0.10779604 0.081858218 0.60082126 -0.04064925 0.79834974
-0.021674415 0.10606415 0.080196798 0.77828091 0.060734086 0.62497294
-0.025421686 0.10616024 0.083047748 0.2360622 0.0014019574 0.97173744
-0.023021372 0.10601147 0.082031168 0.55175543 0.017527949 0.83382225
-0.0038462596 0.11021161 0.086644396 -0.0047388752 0.0087881507 0.99995059
0.002704242 -0.095208183 0.080814466 -0.022295443 0.18257543 0.98293954
-0.001376752 0.10406533 0.063519001 0.023928199 -0.091555104 0.99551296
0.0004016379 -0.052690126 0.075370982 0.81288564 -0.10815825 0.57229316
-0.012023662 0.099308833 0.056815144 0.011541493 -0.15785818 0.98739481
-0.01011424 0.099970318 0.057229262 -0.25024268 -0.055978321 0.966564
0.0041683069 -0.095584847 0.080442205 0.55211252 0.21173635 0.80643684
-0.0030295111 0.10837628 0.086320356 0.64537978 -0.027718041 0.76335943
-0.021184029 0.10314352 0.080432326 0.71023118 0.20650084 0.67300081
-0.015749523 0.098051257 0.056847829 0.25390351 -0.10971617 0.96098721
-0.013693086 0.097389169 0.056639615 0.048427317 -0.098846391 0.99392408
-0.010974593 0.098464876 0.056691982 -0.12614089 -0.1136525 0.9854809
-0.0094213327 0.098606989 0.057265274 -0.34314251 -0.10775092 0.93308306
-0.010584231 0.09715192 0.056698315 -0.12705579 -0.098711997 0.98697203
-0.015767228 0.095273122 0.056742847 0.19532084 -0.08207906 0.97729921
-0.022225287 0.10330476 0.081545971 0.55568606 0.064356171 0.82889825
-0.019913308 0.10134323 0.079835169 0.6314466 0.41378474 0.65578848
-0.0042269356 0.10581104 0.0864584 -0.18736956 -0.023265531 0.98201442
-0.016731232 0.092703804 0.05668506 0.29364845 -0.13214876 0.94673556
-0.017383076 0.095403649 0.057247724 0.39388561 -0.082962602 0.91540831
-0.0023639111 0.10529063 0.08537633 0.88131577 0.017444266 0.47220683
-0.013619182 0.094666228 0.056302857 0.040255666 -0.10765218 0.99337381
-0.0097147636 0.096201167 0.056716308 -0.15625504 -0.10917731 0.98166472
-0.010770869 0.094067015 0.056399185 -0.11124196 -0.13618699 0.98441821
-0.021566883 0.10139065 0.081403956 0.51453376 0.1613937 0.84214485
-0.019741135 0.099882096 0.080836184 0.45183718 0.32206988 0.83193451
-0.018017657 0.10013428 0.078981243 0.48432472 0.66021478 0.57406181
-0.016168542 0.09943004 0.078765281 0.17604774 0.83855581 0.51558912
-0.0091592995 0.093846172 0.056638855 -0.25026208 -0.15028909 0.95644295
0.0080780042 -0.060291223 0.029268127 0.80413944 -0.015565 0.59423769
-0.017165277 0.099056192 0.07985533 0.31474361 0.58358651 0.74857473
-0.0026897022 0.10304341 0.085790284 0.89653713 0.018167544 0.44259706
-0.013316024 0.093456402 0.056133073 0.1000668 -0.18472511 0.97768307
-0.0012827434 -0.053533524 0.076659299 0.57444638 -0.10376791 0.81193864
-0.015019273 0.09104117 0.055861033 0.21355502 -0.11559866 0.9700681
-0.011920856 0.092967369 0.056038532 -0.049602836 -0.15976697 0.98590827
-0.0097455941 0.091336466 0.056201335 -0.18871501 -0.1756894 0.96618885
-0.0035112074 0.10397964 0.086459078 0.28705049 0.040625971 0.95705414
-0.01050723 0.090069667 0.055603184 -0.11786941 -0.14610836 0.98222202
-0.022277873 0.094240494 0.08164043 0.40552568 0.0037897136 0.91407639
-0.022280045 0.096042871 0.081737258 0.3857176 -0.016980456 0.92246115
-0.020685095 0.093708068 0.08094012 0.22663929 -0.010419914 0.9739235
-0.0025996522 0.098815098 0.086009517 0.81987423 0.0054676882 0.57251823
-0.021776173 0.089473031 0.081413932 0.40318564 -0.0025418925 0.9151153
-0.00016880182 0.08917354 0.06131275 0.78114134 -0.081023112 0.61907542
-0.020117581 0.08844687 0.080818184 0.27189061 -0.01612323 0.96219361
-0.0027230701 0.094598226 0.08598654 0.65098256 -0.048756156 0.75752598
0.00072138716 0.085108913 0.060000528 0.87863004 -0.01032385 0.47739267
-0.0028265577 0.092693388 0.085888781 0.62509024 0.0017545288 0.78055114
-0.021657884 0.086303949 0.081336685 0.42050818 -0.03215874 0.90671927
-0.0026029202 0.089711845 0.08571063 0.75666851 -0.013927356 0.65365124
-0.00041849658 0.084560275 0.060707506 0.34736648 -0.11252479 0.93095422
0.00016956257 0.082787946 0.060418006 0.34561154 -0.13257511 0.92896581
-0.023475075 0.084144346 0.082316421 0.4078452 -0.00022807292 0.91305161
-0.021550322 0.08363083 0.081163853 0.39306042 0.0045811161 0.91950178
-0.002705479 0.087845854 0.085827701 0.50553334 -0.019345175 0.86259061
-0.022149602 0.08113654 0.081575602 0.43119618 0.0142088 0.90214682
-0.0033636335 0.08498504 0.086136483 -0.005222911 0.0054768696 0.99997187
4.4394899e-05 0.078026012 0.059728079 0.3921001 -0.12161157 0.91184938
-0.022534737 0.078958958 0.08181534 0.4356856 -0.002704323 0.90009546
-0.019055197 0.079352163 0.080445141 0.25325695 -0.022784567 0.9671312
-0.021640807 0.075748235 0.081181489 0.41987151 -0.0050483509 0.90757012
-0.0021367401 0.080947891 0.085117817 0.89759398 0.020214198 0.4403607
-9.1866947e-05 0.074746422 0.059262391 0.24298607 -0.13123068 0.9611125
0.00096521608 0.073085427 0.058486201 0.68161601 -0.055159621 0.72962874
-0.0019940177 0.077284485 0.08468283 0.98516119 0.016789155 0.1708115
0.00088459061 0.071629807 0.058433224 0.88311827 -0.068609774 0.46410778
-0.0028359571 0.079184279 0.085741274 0.45125341 -0.013420575 0.89229548
-0.020346669 0.074317299 0.080726042 0.4050467 0.00057429867 0.91429639
-0.020772532 0.069193751 0.080784284 0.42958435 -0.020484839 0.9027949
-0.020636953 0.067242824 0.080682091 0.38821918 0.0084766671 0.92152864
0.00068892859 0.06362018 0.057476971 0.29192907 -0.13343248 0.94708723
0.0009235852 0.061745156 0.057001162 0.23932825 -0.13587716 0.96138453
0.00053959194 -0.044379372 0.074622683 0.99787951 -0.018793503 0.062323857
-0.018966118 0.063889176 0.080106996 0.30810919 -0.032362353 0.9508009
-0.021079741 0.064069398 0.081044517 0.48695669 0.001463082 0.8734253
0.0011275475 0.059381481 0.056602251 0.50824428 -0.11715158 0.85320807
-0.022122918 0.061770748 0.08175642 0.39605346 -0.017678803 0.91805786
-0.019033661 0.061164111 0.079950422 0.20054902 -0.021134792 0.97945619
-0.0020479502 0.066664599 0.084881276 0.81365651 -0.0041295458 0.58133197
0.0017569504 0.058060125 0.055428836 0.99203736 0.072001152 0.10333751
-0.0027315256 0.06602753 0.085451156 -0.068360493 -0.051493708 0.99633139
-0.020558296 0.061151966 0.080544457 0.46655977 -0.0165981 0.8843345
-0.022758884 0.059389278 0.081902474 0.29008657 -0.058650672 0.95520198
-0.018654836 0.058434535 0.079800576 0.30290633 -0.022555837 0.9527539
-0.002406612 0.063617691 0.085259296 0.58069426 -0.062163495 0.81174546
-0.022760382 0.057394173 0.081864022 0.34785581 0.00093162886 0.9375481
0.00112451 0.053020742 0.0555567 0.43098903 -0.10881642 0.89577252
-0.0026832304 0.06183771 0.08525797 0.56128138 -0.022975011 0.82730663
-0.019431351 0.055935554 0.080038503 0.41097903 -0.019793103 0.91143036
-0.02172008 0.054829516 0.081353866 0.44883192 -0.022065545 0.89334428
0.0019060283 0.051175795 0.054830052 0.72232211 -0.12378644 0.68038863
-0.0021962316 0.05778442 0.08485911 0.56652784 -0.0035290602 0.82403553
-0.0035437122 0.059287243 0.084948815 -0.3658281 -0.045596957 0.92956531
-0.020111863 0.053570103 0.080247007 0.46783599 -0.00070889649 0.88381559
-0.023089694 0.051399413 0.081715614 0.045054812 -0.044209111 0.99800628
-0.017099848 0.050596658 0.079215199 0.12536265 -0.0738222 0.98936117
0.00081451429 0.046127524 0.054359913 -0.1341832 -0.20157033 0.97023976
0.0020658318 0.046168528 0.053932853 0.64635903 -0.096134111 0.75695395
-0.015544927 0.049806327 0.078874089 0.0038588776 -0.084739476 0.99639612
0.0024565335 0.04223242 0.052824605 0.92012215 -0.039533332 0.38963246
0.0021021026 0.039915465 0.052871868 0.64155352 -0.118762 0.75782961
-0.019724801 0.044428978 0.079810187 0.44905958 -0.022438146 0.8932206
-0.0019822232 0.04946743 0.084309168 0.62308395 -0.019464891 0.78191334
-0.017242694 0.042354099 0.078940921 0.20174421 -0.021841317 0.97919518
-0.019636458 0.039993227 0.079764865 0.46504945 -0.01350444 0.88518226
-0.0188451 0.042888142 0.079417512 0.42096514 -0.017098639 0.9069162
-0.0017722206 0.045769352 0.083946228 0.91271645 -0.018107658 0.40819323
-0.018540611 0.04034828 0.079208113 0.29533106 -0.013375249 0.95530182
-0.0022751589 0.043692056 0.084274881 0.47627836 -0.031388961 0.87873471
-0.019682448 0.037539165 0.079751767 0.44680429 -0.021437632 0.89437544
-0.019411128 0.034916833 0.079499528 0.45579028 -0.018653348 0.88989234
0.0023435971 0.030947588 0.051401202 0.60552049 -0.10353085 0.78906727
-0.0015240731 0.038840763 0.083223663 0.89206195 -0.073588714 0.44588259
-0.017560909 0.031459238 0.078623638 0.28060153 -0.051679082 0.95843256
-0.0020967205 0.038037017 0.083783284 0.68321633 -0.025971666 0.72975469
-0.0040448275 0.023630073 0.045078874 -0.32604274 -0.19480939 0.92506564
0.0030724544 0.02737272 0.04998228 0.85844392 -0.067295447 0.50847447
-0.021405684 0.031470768 0.080580026 0.35895702 -0.094528437 0.92855543
-0.0019345392 0.035542529 0.083490565 0.65992111 0.01653086 0.75115359
-0.019638155 0.029911831 0.079515308 0.48723117 -0.014127653 0.87315929
-0.0044627385 0.019161765 0.04396553 -0.35088187 -0.19916669 0.91499496
0.0024089366 0.024615204 0.050276574 0.42709363 -0.16228451 0.88952559
-0.017505445 0.029238891 0.078332148 0.28379875 0.0042988532 0.9588747
0.0033257341 0.023437332 0.048904926 0.95595354 -0.00156483 0.29351562
-0.019995112 0.026744487 0.079764642 0.38488689 0.032706764 0.92238462
-0.0015378104 0.031781502 0.083153658 0.82572269 -0.063848116 0.56045187
-0.0013226714 0.033979841 0.083002821 0.94452131 0.020759512 0.32779503
-0.0026767878 0.03002923 0.083412103 -0.34477299 -0.11488991 0.93162918
-0.0052870056 0.014014482 0.042562824 -0.14112028 -0.20435068 0.96867275
0.0026427584 0.019166909 0.04904994 0.24294411 -0.16606893 0.95571983
0.0037239033 0.017770626 0.048238296 0.84066153 -0.13410586 0.52469474
-0.018961141 0.021244589 0.080374002 0.27838665 0.25710458 0.92541826
-0.01649854 0.021887483 0.0792403 0.12045636 0.33037114 0.93613362
0.0033864568 0.012393052 0.047641654 0.55942136 -0.12800542 0.81894034
0.0038777851 0.012040216 0.046781756 0.9843697 -0.032246623 0.17314027
-0.0019614964 0.020936115 0.083193243 0.44201016 0.051273841 0.89554393
0.003453787 0.011181829 0.047317564 0.7478407 -0.10683542 0.65522617
0.0034193157 0.0080641275 0.046805594 0.57773179 -0.14750433 0.80278844
-0.0049880119 0.01821582 0.08363983 -0.26224986 0.29071674 0.92016834
-0.0023802717 0.015889345 0.083613135 0.50583988 -0.034112457 0.86195314
0.0010123876 -0.098473735 0.081028841 -0.16161297 0.20613575 0.96508563
-0.0027342974 0.011321516 0.083354138 0.48866263 -0.038346592 0.87163019
-0.017846067 -0.10533397 0.078797683 -0.31973571 -0.15044351 0.93548751
-0.0047982312 -0.010071465 0.037073735 -0.060514245 -0.23207918 0.97081316
0.0041480134 -0.0056666788 0.043701589 0.59622675 -0.17363712 0.78381425
-0.0016540632 0.0069349702 0.082217753 0.78503507 -0.033860072 0.6185258
0.0032170119 -0.097666003 0.081470266 0.007117284 0.19946799 0.97987896
-0.0071128448 0.0055846516 0.08448191 0.11909547 -0.10956553 0.98681945
0.0042482624 -0.006978936 0.043185785 0.78405917 -0.10215953 0.61222172
-0.004984526 -0.014893724 0.035976414 0.074126385 -0.19903587 0.97718519
0.0035346809 -0.011465427 0.042568866 -0.21221752 -0.25765914 0.94264334
-0.004741325 -0.018552721 0.035040505 0.0039225416 -0.21982627 0.9755317
0.0044268765 -0.015103727 0.041697733 0.26024532 -0.22055039 0.94001639
-0.006322525 -0.017756298 0.035431258 0.1388039 -0.2114241 0.96748865
-0.0044232849 3.6641424e-05 0.083260201 0.36033008 -0.062460139 0.93073195
-0.0061402246 -0.020446876 0.03490945 0.15945841 -0.22890025 0.9603014
-0.0043515009 -0.0039796266 0.083060324 0.335769 -0.052060984 0.94050515
-0.0030099603 -0.0034776747 0.082489021 0.52739501 -0.070460416 0.84669405
-0.0068659382 -0.025105834 0.033958379 0.33883291 -0.1957241 0.92026377
-0.0045384383 -0.024030728 0.033690758 -0.009656271 -0.22891665 0.97339869
-0.0058080107 -0.026394462 0.033483759 0.1657088 -0.23027608 0.95891327
-0.0034614315 -0.006337869 0.082453541 0.45565218 -0.062243413 0.88797963
-0.0038774861 -0.0089371698 0.08252386 0.41829592 -0.055512987 0.90661341
-0.0065553701 -0.028938219 0.032875363 0.2955294 -0.21010722 0.9319433
-0.0049969638 -0.029359693 0.03254642 0.11303436 -0.25017327 0.96158075
-0.0051036701 -0.011633482 0.082741924 0.33199775 -0.10904697 0.93695641
-0.0035649105 -0.029782938 0.03231461 -0.035555057 -0.21717396 0.97548568
-0.0040914915 -0.031469196 0.032061268 0.017715005 -0.27046847 0.96256638
-0.0070488476 -0.012160479 0.083142906 0.10593404 -0.10828883 0.98845971
-0.0035020728 -0.012007113 0.082083151 0.41544223 -0.049501207 0.90827221
-0.0022909436 -0.01395656 0.081468567 0.5548678 -0.06127169 0.82967973
-0.0047130063 -0.014199287 0.082468487 0.31085867 -0.082797922 0.94684339
-0.0034214077 -0.016918698 0.081598327 0.49259245 -0.090455495 0.86554694
-0.0010076109 -0.015606823 0.080126211 0.76673877 -0.099946514 0.63413197
-0.0055609653 -0.038875896 0.030196333 0.3327871 -0.18741052 0.92419207
-0.0031373077 -0.018949287 0.081482463 0.39199063 -0.043195799 0.91895515
-0.0056801988 -0.020376338 0.082186706 0.21210453 -0.027506448 0.97686028
-0.0018918095 -0.01909768 0.080633998 0.69936031 -0.035496891 0.71388799
-0.0061602085 -0.043132946 0.029572254 0.42309061 -0.1945442 0.88495642
-0.0040238667 -0.02068064 0.08167848 0.39246517 -0.11204191 0.91291767
-0.0056568743 -0.0432841 0.029021356 0.25637871 -0.30109653 0.91848344
-0.0015803162 -0.022655081 0.080021262 0.63990468 -0.070783108 0.7651881
-0.0043786294 -0.043747801 0.028714685 0.19596918 -0.19722338 0.96057278
-0.0052129291 -0.023310855 0.081730992 0.33655822 -0.10511837 0.9357776
-5.0784434e-05 -0.056738682 0.075423457 0.79868585 0.018456468 0.60146588
-0.0035503583 -0.024393737 0.081124134 0.42047849 -0.059537992 0.90534753
-0.0057064262 -0.046848848 0.028390374 0.35251051 -0.23004696 0.90709192
-0.0046830475 -0.027833115 0.081180811 0.31849712 -0.092860378 0.94336504
0.004381841 -0.099084742 0.081173718 0.45923182 0.17225532 0.87145567
-0.0048204451 -0.047873314 0.027689297 0.28623429 -0.21229263 0.93434614
0.0036214488 -0.099805512 0.081674546 0.093985409 0.1106135 0.9894101
-0.0049924385 -0.049008958 0.027775567 0.34215936 -0.15173945 0.92730957
0.0019799278 -0.10281578 0.081870072 -0.095280029 -0.009243248 0.99540812
-0.0069438801 -0.028638117 0.081588916 0.12761879 -0.18054591 0.97525257
-0.0074675721 -0.029636674 0.081582174 0.056762915 -0.071851127 0.9957993
-0.0053374865 -0.050889745 0.027386483 0.40023983 -0.26180121 0.87821931
-0.0027252217 -0.027667662 0.080402508 0.47607717 -0.082643785 0.87551212
-0.0043759304 -0.053066671 0.026310369 0.32208562 -0.21343949 0.92233694
-0.0030305029 -0.050825816 0.026802449 0.05581551 -0.26443347 0.96278793
-0.0046161874 -0.031040438 0.08091788 0.3168256 -0.09148179 0.94406229
-0.0024397741 -0.030924957 0.079780407 0.5098176 -0.094943874 0.85502774
-0.0030762688 -0.053711627 0.025903173 0.14487602 -0.2111751 0.96665245
-0.0076080346 -0.032202054 0.081504226 0.098232694 -0.10306095 0.98981303
-0.0059786937 -0.055504754 0.026692733 0.43855688 -0.20614201 0.87474245
-0.0027424018 -0.055376168 0.025730291 0.086148955 -0.25440967 0.96325237
-0.0037344331 -0.033387773 0.080299385 0.38494152 -0.074214108 0.91995293
-0.0040279585 -0.056381997 0.025541281 0.25388581 -0.28957802 0.92286921
-0.0023055431 -0.035738487 0.079553142 0.52427542 -0.10545584 0.84499413
-0.0022277834 -0.057501793 0.024957718 0.0050262436 -0.17620263 0.9843415
0.0040360331 -0.10285977 0.081979327 0.15317018 0.064806066 0.98607302
-0.0053779269 -0.057703715 0.02559693 0.38199905 -0.19153275 0.90409786
-0.0031248862 -0.058187004 0.024694026 0.20351529 -0.12226887 0.97140765
-0.0039210822 -0.037055355 0.079957843 0.33105505 -0.12855642 0.9348138
-0.0044001765 -0.060004801 0.025135478 0.2620472 -0.097779736 0.96008921
-0.0024369429 -0.037885725 0.079081006 0.5653193 -0.10939917 0.817586
-0.0048110369 -0.061598871 0.02477077 0.20235345 -0.12741096 0.97098941
-0.0035559218 -0.039331466 0.079501949 0.42507651 -0.086602569 0.90100545
-0.0033214653 -0.062038213 0.024666248 -0.026770817 0.00011877516 0.99964201
-0.0048684375 -0.063314229 0.024784502 0.21389873 0.028362 0.97644448
0.0068740449 -0.056822952 0.030910138 -0.35172537 -0.32067513 0.87946451
-0.0042014238 -0.041437481 0.079591125 0.35620359 -0.10276833 0.92874038
-0.0062237903 -0.043385573 0.079947062 0.20136926 -0.15464854 0.96723074
-0.003745601 -0.043504667 0.079136074 0.41276497 -0.09594316 0.90577102
-0.0021225843 -0.045519911 0.078227751 0.50291169 -0.067817666 0.86167365
-0.0026431864 -0.047858104 0.078130051 0.44983149 -0.14135942 0.88185614
0.0067297332 -0.039461732 0.034138512 0.88408357 0.10040832 -0.45641595
-0.0011754195 -0.056939907 0.07625021 0.60054344 -0.10307218 0.79292154
-0.0042481953 -0.046139456 0.079094499 0.30713755 -0.12059721 0.94399357
-0.0015583752 -0.048763525 0.077250049 0.58072257 -0.084793337 0.8096742
0.0080877077 -0.066696554 0.028042378 -0.23911819 -0.1523388 0.95896631
0.0047580134 -0.10205384 0.081388466 0.50781465 0.13076428 0.8514846
-0.0068319556 -0.051293842 0.079100281 0.039039746 -0.12885398 0.99089539
-0.0015092087 -0.050543245 0.077318206 0.48575491 -0.0731069 0.87103289
-0.0048441282 -0.052389998 0.078466594 0.29676601 -0.11137766 0.9484334
-0.00052987313 -0.05097083 0.076433271 0.75672311 -0.03894417 0.65257531
-0.0032921012 -0.053930134 0.077722624 0.4099018 -0.11513955 0.90483391
-0.0050075091 -0.056164604 0.078039348 0.21295445 -0.11157694 0.97067088
-0.0033802588 -0.058466177 0.077138968 0.39756364 -0.12629655 0.90884173
-0.0050692288 -0.058257103 0.077753849 0.21629539 -0.13929677 0.96634036
-0.001501956 -0.059414398 0.076053374 0.48171198 -0.12206996 0.86778647
-0.0013229313 -0.062251102 0.07558126 0.41446772 -0.050609358 0.90865624
-0.0034343333 -0.060663275 0.076865911 0.36618504 -0.12707934 0.92182451
-0.003893662 -0.063832328 0.076635785 0.34519827 -0.0931122 0.93390006
-0.0023130667 -0.066045627 0.075691961 0.26978329 -0.094386458 0.95828444
-0.0053997468 -0.066882595 0.076587245 0.19098547 -0.14539783 0.97076517
-0.0075504347 -0.068026707 0.076547123 -0.047193151 -0.16439937 0.98526472
-0.0046157939 -0.069007672 0.076138452 0.15502638 -0.05012913 0.98663819
-0.0020694449 -0.067301899 0.075608119 0.037143257 0.12409624 0.99157524
9.3549039e-05 -0.066227801 0.075439028 0.34171051 0.14768419 0.92812943
0.0016665856 -0.067392334 0.074508838 0.68768317 0.25018758 0.68154174
-0.023115119 0.15655674 0.080408908 0.33047259 0.087313175 0.93976873
-0.0050728824 0.14865734 0.08632654 0.051907588 0.04715205 0.99753857
-0.0048741321 0.14410852 0.086504467 -0.14418171 0.011311301 0.98948705
-0.0041614035 0.12650089 0.086700328 0.23892698 -0.057333566 0.96934396
-0.023593361 0.080808051 0.082380205 0.34144661 -0.023872908 0.9395985
-0.020629352 0.079431064 0.080889307 0.36471322 -0.015908837 0.93098456
-0.023600241 0.074221522 0.082459733 0.27418029 -0.039503716 0.96086711
0.0013884945 0.042893354 0.053731292 0.10648558 -0.18822378 0.97633678
-0.018832872 0.049444646 0.079608329 0.40703326 -0.046238914 0.91224277
0.0018259189 0.037760843 0.052790191 0.30765209 -0.15526225 0.93874639
-0.0062732445 -0.037353709 0.080608241 0.15103766 -0.13695875 0.97899485
-0.00011044536 -0.079756051 0.077756844 -0.16216432 0.15554748 0.97442734
-4.1237232e-05 0.072329611 0.058907349 0.264595 -0.11564127 0.95740145
-0.01154214 -0.075967044 0.024334716 -0.46441004 0.1536175 0.87219602
-0.028673019 0.13569379 0.081239238 -0.98187721 -0.034412004 -0.18637042
-0.021162773 0.069538333 0.054111186 -0.93592668 0.0051338444 0.35215908
-0.00015526002 -0.059806485 0.075115256 0.63905865 -0.02807398 0.76864612
-0.0015262469 0.085352883 0.06074696 -0.76867783 -0.064330719 0.63639367
-6.9681657e-05 0.080831386 0.060208466 0.37229219 -0.14525624 0.91667885
0.00033969278 0.069628567 0.058454063 0.48565933 -0.16088542 0.8592158
-0.0055261818 0.10505966 0.05891972 -0.92121166 0.34658873 0.17676657
-0.0011106482 0.10709848 0.063869581 -0.075648569 -0.085801773 0.99343657
-0.024496045 0.15209639 0.08138907 0.38202992 0.01692728 0.92399549
-0.0044174776 0.15751715 0.085754611 0.45833763 -0.010617949 0.88871533
-0.017101506 -0.059032951 0.070092484 -0.8396129 0.023950141 -0.54265767
-0.018027829 -0.068111613 0.070569992 -0.97548783 0.0077236956 -0.21992025
-0.021679673 0.14794418 0.080177665 0.41092899 -0.12163334 0.90351737
-0.022830626 0.14614537 0.08063785 0.72442412 -0.084407456 0.68416822
-0.0052611395 0.15351531 0.086082406 -0.24044527 0.04822268 0.96946454
-0.020518757 0.14364107 0.062916197 0.55725783 -0.036245596 0.8295486
-0.022399697 0.14454626 0.079667784 0.79960293 -0.13893758 0.5842365
