# .PCD v0.7 - Point Cloud Data file format
VERSION 0.7
FIELDS x y z normal_x normal_y normal_z
SIZE 4 4 4 4 4 4
TYPE F F F F F F
COUNT 1 1 1 1 1 1
WIDTH 663
HEIGHT 1
VIEWPOINT 0 0 0 1 0 0 0
POINTS 663
DATA ascii
-0.036820818 -0.036568079 -0.048284113 -0.030562755 0.75429088 0.65582943
-0.029759319 -0.037703563 -0.046052478 -0.14412999 0.78823036 0.59826446
-0.015449698 -0.037993032 -0.038567986 -0.39339691 0.79242921 0.4661499
-0.079011716 -0.024644639 -0.03964762 0.3792887 0.72129273 0.57954967
-0.049465586 -0.035757806 -0.047779467 0.1830395 0.73966628 0.64760429
-0.046594527 -0.035607565 -0.048661027 0.12492944 0.73692304 0.66433281
-0.033365782 -0.039035194 -0.045011286 -0.083839856 0.79195702 0.60479409
-0.026066381 -0.038601357 -0.04375444 -0.19567801 0.79039699 0.58050293
-0.030574556 -0.039147802 -0.044180632 -0.14876859 0.7994476 0.5820244
-0.045410827 -0.037350677 -0.046814125 0.088667132 0.76576459 0.63698006
-0.039174944 -0.037714541 -0.046986438 0.011543137 0.770643 0.63716334
-0.03577454 -0.037697818 -0.046868652 -0.045090243 0.77119124 0.63500547
-0.035393178 -0.038946673 -0.04524111 -0.027095743 0.79530782 0.60560066
-0.013843819 -0.039063863 -0.03503086 -0.42951053 0.80956489 0.40015778
-0.023310252 -0.039436832 -0.041483607 -0.25965694 0.81493962 0.51812404
-0.079449952 -0.025991688 -0.03773981 0.29971939 0.73686886 0.60596496
-0.051852696 -0.036499292 -0.046135053 0.23204713 0.75668812 0.61121035
-0.042046215 -0.037619457 -0.046871137 0.061116554 0.76871723 0.6366629
-0.039674886 -0.039334659 -0.044900294 0.01784974 0.79890645 0.60119116
-0.013368457 -0.040253159 -0.031870067 -0.43235424 0.83213544 0.34730563
-0.054602601 -0.034751885 -0.047008958 0.28260171 0.7256465 0.62735504
-0.011456815 -0.040358435 -0.029064961 -0.47356236 0.83761156 0.27229828
-0.036622621 -0.040705875 -0.042956252 -0.020375162 0.82846183 0.55967551
-0.032307778 -0.040397748 -0.042957332 -0.10308322 0.83050412 0.54739165
-0.029106939 -0.040837049 -0.041545674 -0.17831746 0.82932621 0.52954876
-0.080305815 -0.027094577 -0.036028352 0.32663023 0.78015852 0.5335412
-0.050103664 -0.038843207 -0.043692827 0.20318511 0.80095106 0.56319988
-0.043171216 -0.04017137 -0.043444097 0.072321966 0.81802058 0.57062489
-0.040747222 -0.040154368 -0.043611493 0.02547209 0.82600802 0.56308329
-0.018965654 -0.041761644 -0.034441009 -0.3374972 0.85920978 0.38451937
-0.053051367 -0.038173009 -0.043470833 0.26507631 0.77905142 0.56816751
-0.047631647 -0.038042624 -0.045561969 0.15436931 0.7841996 0.60100091
-0.026668875 -0.042272765 -0.03826322 -0.20298199 0.85414016 0.47879398
-0.022946319 -0.040765688 -0.038973372 -0.25197884 0.8330369 0.49250096
-0.022180533 -0.042011593 -0.036375824 -0.27656254 0.85503978 0.43865833
-0.044412293 -0.038874436 -0.045020465 0.097144842 0.79757065 0.59535277
-0.04128721 -0.041450154 -0.041724056 0.034720924 0.83982688 0.5417437
-0.0364119 -0.042220753 -0.040433947 -0.025635691 0.86738408 0.4969795
-0.079928614 -0.02856596 -0.033718131 0.5052653 0.70929521 0.49153665
-0.04757617 -0.040166248 -0.04241465 0.15126428 0.81478536 0.55968273
-0.03040104 -0.04218683 -0.039450608 -0.13365681 0.85434878 0.50221997
-0.016530119 -0.042991083 -0.028475244 -0.38514236 0.88077515 0.27550247
-0.034115214 -0.042055245 -0.04064206 -0.075816967 0.85597533 0.5114283
-0.044061799 -0.041837413 -0.040788695 0.08728721 0.85130078 0.51736701
-0.034935713 -0.043361675 -0.038231682 -0.037187804 0.86893111 0.4935348
-0.031913042 -0.043316271 -0.038064245 -0.10108569 0.87064844 0.48140824
-0.046299875 -0.040913742 -0.041809052 0.13673255 0.82412326 0.54965985
-0.046684362 -0.042339232 -0.039281465 0.13115092 0.86352921 0.48694724
-0.042607486 -0.042717882 -0.039432321 0.076248653 0.8681854 0.49034804
-0.055601981 -0.039416406 -0.040489528 0.278687 0.80169302 0.52879363
-0.039319213 -0.042191125 -0.040606279 0.0075031752 0.85824966 0.51317841
-0.025973063 -0.043485507 -0.035417393 -0.22770914 0.87784964 0.42134249
-0.080770686 -0.029435204 -0.031688187 0.47157955 0.75261164 0.45955351
-0.05050505 -0.040417336 -0.041234393 0.21357037 0.8234657 0.52563554
-0.038758475 -0.043708649 -0.037943915 -0.016949682 0.87802434 0.47831681
-0.029287949 -0.043815039 -0.036377605 -0.16380151 0.87899673 0.44781107
-0.024682408 -0.044238705 -0.033278685 -0.25796843 0.89361471 0.36729568
-0.080888264 -0.030614585 -0.029532958 0.48997787 0.75431448 0.43695807
-0.049301218 -0.04145769 -0.039991371 0.18405318 0.84191966 0.50724411
-0.041174803 -0.043600965 -0.038120557 0.047081426 0.87560254 0.48073334
-0.028333468 -0.044828508 -0.033687826 -0.17668812 0.90633529 0.38384709
-0.035190191 -0.044309147 -0.036748439 -0.042664472 0.88942766 0.45508155
-0.057153121 -0.040683452 -0.037335616 0.32810241 0.82017159 0.46868789
-0.026454588 -0.045353986 -0.031272851 -0.19781446 0.9220385 0.33273932
-0.040390819 -0.044913985 -0.035636012 0.045746427 0.90533417 0.42223033
-0.032124456 -0.044962924 -0.034823779 -0.10925083 0.9063248 0.40821639
-0.023280002 -0.045073692 -0.029837435 -0.27130613 0.91261989 0.30580875
-0.054635432 -0.04072468 -0.038773827 0.25307798 0.83503574 0.48853645
-0.052952945 -0.041691091 -0.037973788 0.24530558 0.84795666 0.46988887
-0.043602683 -0.04436557 -0.036205869 0.084847502 0.89161414 0.44477642
-0.020427607 -0.045163944 -0.02661253 -0.31773075 0.91188103 0.25984851
-0.048420954 -0.044379111 -0.034743883 0.14449346 0.89766985 0.416307
-0.038114406 -0.04519238 -0.034930747 -0.0096889408 0.91072351 0.41290411
-0.023834312 -0.046117477 -0.026847653 -0.25041866 0.93390769 0.25516224
-0.081036888 -0.03155978 -0.027377501 0.40600795 0.83579624 0.36959845
-0.049953006 -0.042990662 -0.037054427 0.19015691 0.86694139 0.46071017
-0.045788735 -0.043871351 -0.036769349 0.12281299 0.88309807 0.45283088
-0.030530205 -0.045760591 -0.032320585 -0.14494281 0.92108303 0.36138427
-0.040168367 0.00035123795 0.065160476 -0.65676808 0.45917085 0.59817958
-0.054073904 -0.042861726 -0.035098188 0.25181144 0.86833799 0.42729488
-0.050996784 -0.043993436 -0.034620047 0.21309118 0.88616413 0.41146854
-0.0333312 -0.046506356 -0.031478319 -0.081032783 0.92698801 0.36623484
-0.056667317 -0.042159647 -0.034875892 0.29547265 0.85751212 0.42115283
-0.029995769 -0.047040869 -0.028621608 -0.17712092 0.9404822 0.2900385
-0.04384036 -0.045895912 -0.032697834 0.095732629 0.91187191 0.39915645
-0.038344875 -0.046265569 -0.032514952 -0.00061673665 0.9222123 0.38668486
-0.05946466 -0.041445501 -0.034207597 0.37342966 0.83273578 0.4087815
-0.055223607 -0.043724939 -0.032555494 0.2775262 0.88140458 0.38223848
-0.04505866 -0.045208827 -0.034031849 0.1076241 0.90843856 0.40392751
-0.037931167 -0.0015463156 0.068355501 -0.58505636 0.38143572 0.71569318
-0.079893008 -0.033146352 -0.025067279 0.50409353 0.78687364 0.35597822
-0.042063266 -0.046214793 -0.032465942 0.041755326 0.92285985 0.38286707
-0.058688864 -0.043041602 -0.031202378 0.34564504 0.86398447 0.3661437
-0.052098788 -0.044669397 -0.032281809 0.23532441 0.89737624 0.37328196
-0.036308814 -0.047538515 -0.029058771 -0.046176184 0.94960904 0.3100183
-0.062041175 -0.042100344 -0.029934656 0.40702695 0.85084295 0.33225912
-0.049033016 -0.045448117 -0.032214634 0.18015242 0.91058606 0.37199339
-0.046700079 -0.04610398 -0.031491745 0.13903879 0.9200812 0.3662239
-0.037115403 -0.046725508 -0.031382225 -0.014099906 0.9335919 0.35806206
-0.033646259 -0.047840554 -0.027369607 -0.081347063 0.95886135 0.27197176
-0.031912874 -0.047061007 -0.029393494 -0.11139527 0.94605094 0.30426931
-0.082484834 -0.032916173 -0.024385165 -0.15927786 0.93172944 0.32636145
-0.041384809 -0.047048479 -0.030289426 0.035340544 0.94327521 0.3301273
-0.081411108 -0.033098664 -0.023340147 0.28564867 0.89400887 0.34518701
-0.080626823 -0.03410593 -0.021268301 0.37091851 0.88470966 0.28232828
-0.044228807 -0.046711408 -0.03068291 0.098961458 0.93358898 0.3444117
-0.039233379 -0.047897987 -0.027894046 0.021400025 0.95247936 0.3038522
-0.057846673 -0.043891497 -0.029997719 0.32727304 0.88238865 0.33805856
-0.054228857 -0.045184288 -0.029628739 0.26083717 0.90766567 0.32879764
-0.061668608 -0.042837609 -0.028421246 0.41018835 0.85947472 0.30504027
-0.037659053 -0.048407447 -0.026373122 -0.024509512 0.96519643 0.26037714
-0.044625636 -0.047523554 -0.028225476 0.096712127 0.95035219 0.29576761
-0.04128255 -0.047722597 -0.028191064 0.04713184 0.95053023 0.30703726
-0.082592979 -0.034318786 -0.020260256 -0.011541772 0.95043635 0.31070653
-0.06017825 -0.043916434 -0.027289908 0.39341632 0.86853993 0.30143464
-0.056838747 -0.044821043 -0.028311051 0.31198022 0.90377581 0.29301655
-0.051195875 -0.045684945 -0.030256664 0.20663103 0.9215734 0.32864425
-0.049126156 -0.046501029 -0.029179627 0.18904679 0.92503196 0.32951221
-0.047731172 -0.04702992 -0.028468708 0.15927754 0.93972313 0.30257586
-0.038538028 -0.0037419742 0.068745613 -0.51011503 0.29057848 0.8095355
-0.0542817 -0.045904122 -0.027400279 0.25926036 0.9243598 0.27989998
-0.051767237 -0.04651003 -0.02744473 0.21814036 0.93255192 0.28768501
-0.063403547 -0.043312624 -0.024526058 0.45379499 0.82664466 0.33276051
-0.046499006 -0.0063780048 0.062717214 -0.74548107 0.49234036 0.44928819
-0.059964661 -0.044695541 -0.02511025 0.35783085 0.88986295 0.28302318
-0.057874519 -0.045271553 -0.025719002 0.29272604 0.91545343 0.27614772
-0.047540743 -0.047625747 -0.026502173 0.15481764 0.95447552 0.25496864
-0.042887755 -0.048396945 -0.02588412 0.059774835 0.95939606 0.27565745
-0.041751113 -0.003923459 0.066394217 -0.62544942 0.38421184 0.67911363
-0.040973376 -0.0074564102 0.068529487 -0.50411481 0.26249498 0.82277906
-0.044665825 -0.048486754 -0.024692917 0.10946398 0.96767491 0.22720918
-0.057003725 -0.045912385 -0.024281006 0.29271138 0.92243683 0.25185561
-0.054728303 -0.046765998 -0.023846712 0.25228208 0.93471611 0.250321
-0.051622581 -0.047252625 -0.025054805 0.20721591 0.94684851 0.24604993
-0.041055709 -0.04894508 -0.024090493 0.042957406 0.97202903 0.23090106
-0.047380082 -0.048358764 -0.023825062 0.1507751 0.96622556 0.20898814
-0.051214952 -0.047754649 -0.02319623 0.19866088 0.95491695 0.22060905
-0.044038445 -0.049341034 -0.020819768 0.10273223 0.97682458 0.18777853
-0.051534392 -0.048299205 -0.020397751 0.1942697 0.95938838 0.20453416
-0.048692673 -0.048948515 -0.019756053 0.14557649 0.97136968 0.18774836
-0.044332884 -0.008389662 0.066516675 -0.62990028 0.37784508 0.67857194
-0.044089265 -0.010961211 0.067716047 -0.52635354 0.25195998 0.81207705
-0.047396373 -0.011019927 0.065075003 -0.662085 0.37281853 0.65011597
-0.046299636 -0.012974593 0.066788249 -0.53732705 0.22612265 0.81249559
-0.043328434 -0.013227324 0.068686597 -0.47772986 0.15351364 0.86499053
-0.051559113 -0.014771548 0.06269557 -0.73736954 0.41428086 0.53353393
-0.060540825 -0.021569179 0.048655622 -0.65634686 0.74518979 -0.11790657
-0.061986256 -0.023435673 0.051956639 -0.7689811 0.61726606 0.16628791
-0.078156464 -0.035972379 0.018732198 -0.14323793 0.98210317 -0.12229925
-0.060547519 -0.022971565 0.054992165 -0.79368603 0.51507986 0.32366049
-0.065682352 -0.026847007 0.048331693 -0.76889509 0.59385651 0.23692948
-0.076985024 -0.035043858 0.023827555 -0.27065992 0.95302272 -0.13598475
-0.062989913 -0.025549985 0.053144883 -0.79486811 0.50995982 0.32882631
-0.064118892 -0.026968006 0.052485384 -0.81494474 0.40707248 0.41250211
-0.056738287 -0.023622563 0.06115086 -0.71497023 0.22445528 0.66214687
-0.061282437 -0.025183043 0.055943813 -0.79397023 0.37164247 0.48113847
-0.075932793 -0.034136772 0.032787398 -0.53553247 0.84324324 0.046331827
-0.07492277 -0.0337791 0.036099184 -0.61485445 0.78063101 0.11211631
-0.073387645 -0.03372442 0.040232368 -0.74937755 0.61027759 0.25689599
-0.062718555 -0.02824891 0.055714678 -0.77479982 0.2464866 0.58217728
-0.071587659 -0.032197371 0.042296458 -0.7548762 0.61900443 0.21678653
-0.060449023 -0.029221356 0.05859372 -0.70890802 0.1238723 0.69433862
-0.071863487 -0.033953294 0.044218726 -0.79122865 0.4564794 0.406921
-0.059937615 -0.032059643 0.059329733 -0.65646714 0.039382622 0.75332659
-0.069862716 -0.034768417 0.048192672 -0.81290156 0.34304294 0.47065234
-0.06698475 -0.033066798 0.051697005 -0.79759628 0.21772237 0.56252831
-0.067577265 -0.036017705 0.051754195 -0.77996826 0.16937473 0.60246384
-0.060269486 -0.034924269 0.059103407 -0.63992441 0.00060580688 0.76843816
-0.065310143 -0.03703104 0.05453407 -0.72993153 0.088042483 0.677827
-0.062836774 -0.038377434 0.05691947 -0.67215198 0.024114788 0.74002111
-0.046460867 0.031001704 -0.061517935 0.088009253 -0.4258635 0.90049744
-0.062119853 -0.040605444 -0.033095486 0.40560558 0.82183981 0.40008044
-0.028115777 0.025931433 -0.062414907 -0.20334983 -0.35500365 0.91248143
-0.029872613 0.024501558 -0.06332618 -0.17328675 -0.34012616 0.92427641
-0.034377776 0.018160865 -0.065978304 -0.090417296 -0.23107645 0.96872562
-0.031540699 0.019764546 -0.065228097 -0.13818976 -0.26626599 0.95394284
-0.019138137 0.01925504 -0.06197032 -0.33481583 -0.25025174 0.90844566
-0.030980676 0.014117912 -0.066336006 -0.13928735 -0.14762437 0.97918695
-0.024358248 0.014103521 -0.064921133 -0.26009127 -0.15276201 0.95342392
-0.077481315 -0.026913596 -0.038500011 0.5270862 0.65246648 0.54448926
-0.045189139 0.036500171 -0.060201142 -0.24427786 0.62939882 -0.73768997
0.0072175195 0.026364315 -0.033750236 -0.83557564 -0.39760748 0.37910753
0.0029088855 0.02262713 -0.043932848 -0.74512839 -0.34290451 0.57201505
-0.0056456504 0.019306215 -0.054133173 -0.58872628 -0.27253625 0.76100343
0.0085657155 0.0060859765 -0.041201238 -0.86414295 -0.043668725 0.50134891
0.0017583916 -0.015418687 -0.045659572 -0.58261216 0.17979783 0.79261386
-0.010925908 -0.017200094 -0.055166401 -0.45592797 0.42457795 0.78221744
-0.0044887238 -0.019747198 -0.048906934 -0.58774602 0.43206623 0.68401337
-0.016643682 -0.032868095 -0.046331841 -0.38943812 0.68045396 0.6207425
-0.010819669 -0.037553687 -0.034674875 -0.48014009 0.79368049 0.37354752
-0.018568104 -0.037303407 -0.041922271 -0.34731761 0.77277857 0.53121048
-0.018560991 -0.040542357 -0.036557343 -0.35254121 0.82499617 0.44169778
-0.021809807 -0.043042514 -0.033757817 -0.29784599 0.87720364 0.37656677
-0.035267279 -0.048889201 -0.023966616 -0.084675476 0.97172052 0.22043183
-0.0212631 0.029376801 0.039663401 -0.63298267 -0.238837 -0.73640412
-0.0056118616 0.025664464 0.027550898 -0.67206228 -0.32743666 -0.66416764
-0.005591833 0.029978525 0.025018359 -0.67470628 -0.41009176 -0.61367506
-0.075423867 -0.01402499 -0.051580772 -0.82650602 0.51521719 0.22680348
0.0021067436 0.041714396 -0.017055579 -0.76834923 -0.63683295 0.063907787
0.0038125142 0.039622735 -0.016777543 -0.77543515 -0.62571001 0.084784247
0.0021900521 0.041664898 -0.0088993385 -0.76605231 -0.64091933 -0.048859909
0.018314973 -0.02398875 -0.032942329 -0.63414186 -0.23828658 -0.73558462
0.018269386 -0.025951061 -0.032631736 -0.56153452 -0.029587423 -0.82692468
0.0084598996 0.030444309 -0.024863666 -0.85850453 -0.45403394 0.23837771
-0.029984258 0.0070670824 -0.066841312 -0.16244596 -0.024362978 0.98641711
-0.041844521 -0.022917317 -0.059693035 0.060153954 0.49566376 0.86642939
-0.0066189379 0.021252731 -0.054199476 -0.5759508 -0.31108838 0.75597984
-0.0040985062 0.019331889 -0.052850831 -0.64197183 -0.2604875 0.72112375
-0.0039470079 0.017008362 -0.053625483 -0.63185418 -0.23342682 0.73910302
-0.012087598 -0.018432312 -0.054796256 -0.40738741 0.47288346 0.78129238
-0.023985777 0.035930496 -0.055837322 -0.30010313 -0.5327546 0.7912721
0.00040712548 -0.030604159 -0.03556148 -0.11504682 0.95803088 0.26256815
-0.019505192 0.056680784 -0.027852146 0.47022966 0.82362151 -0.31706887
-0.021009168 0.055993877 -0.031218041 0.43436965 0.83020461 -0.34940544
-0.016545413 0.051766634 -0.034946211 0.44010648 0.79965377 -0.40848631
-0.012338703 0.049643271 -0.034477726 0.49159276 0.77514577 -0.39684558
-0.029155426 0.050783969 -0.045391839 0.26696885 0.75948888 -0.59321588
-0.025770208 0.046913818 -0.048474073 0.29471719 0.72255623 -0.62534416
-0.030027611 0.049008776 -0.047775801 0.1901298 0.74836379 -0.63545525
-0.03156355 0.047744799 -0.049713481 0.1645135 0.73179781 -0.66136855
-0.037005752 0.044828869 -0.053683776 0.11525466 0.67727524 -0.72664678
-0.026383841 0.043720581 -0.051973928 0.2524119 0.66626549 -0.70169771
-0.033310592 0.044951756 -0.052943088 0.156665 0.68168473 -0.71467686
-0.03013101 0.043238707 -0.05359374 0.21051405 0.64957601 -0.73057228
-0.025334368 0.041584473 -0.053617705 0.24727905 0.63853961 -0.72878063
-0.030947922 0.041579176 -0.055308297 0.17936398 0.62607306 -0.75885576
-0.038591608 0.042665008 -0.055756688 0.097373657 0.61204183 -0.78480828
-0.022465795 0.041932918 -0.052122012 0.31039539 0.65361416 -0.69024944
-0.034787968 0.042953152 -0.054967865 0.13922137 0.6255464 -0.76766539
-0.040858332 0.040778395 -0.057331506 0.047930188 0.58245641 -0.81144816
-0.028229086 0.039470363 -0.05629098 0.21544105 0.59710824 -0.77268863
-0.03208182 0.038964819 -0.057580888 0.14965107 0.58730674 -0.79540944
-0.02692217 0.03600673 -0.058395568 0.23370627 0.5516572 -0.80066013
-0.036659837 0.039267663 -0.058099572 0.10046308 0.58760685 -0.80288613
-0.035773024 0.036861204 -0.059624262 0.10522392 0.53418243 -0.83879554
-0.040057331 0.037738554 -0.05944556 0.038801201 0.54726011 -0.83606321
-0.031516802 0.036154334 -0.059441693 0.16884242 0.54184961 -0.82334203
-0.024683652 0.034253299 -0.058843978 0.27076212 0.50872177 -0.8172459
-0.042059667 0.0351336 -0.061130624 0.010470883 0.51267165 -0.8585214
-0.028751994 0.033788797 -0.06029281 0.19909394 0.49359664 -0.846596
-0.03836707 0.034122743 -0.061537631 0.064517073 0.49936 -0.86398959
-0.036014024 0.031667527 -0.062725693 0.093477122 0.45257029 -0.88681638
-0.025773477 0.031098654 -0.061056841 0.24530962 0.4541288 -0.85649931
-0.021736532 0.028882973 -0.060840059 0.33993179 0.41773218 -0.8425836
-0.032930113 0.033012424 -0.061552979 0.13146921 0.49558344 -0.85855323
-0.024153003 0.027433984 -0.062360283 0.27891067 0.39499971 -0.87532002
-0.039540261 0.031130044 -0.063210517 0.014669681 0.44182727 -0.89698076
-0.045065518 0.03020581 -0.063575514 -0.043410372 0.406811 -0.91248089
-0.03802266 0.027977932 -0.064651385 0.049227271 0.41011751 -0.91070372
-0.047874182 0.027847834 -0.064394869 -0.10393864 0.35792747 -0.9279471
-0.027845839 0.026801636 -0.063668519 0.20648684 0.38058847 -0.90139705
-0.031131638 0.029563172 -0.063115247 0.1678393 0.43378082 -0.88524872
-0.04585493 0.024138296 -0.065956257 -0.089567512 0.32830843 -0.94031495
-0.022034846 0.023645509 -0.063228004 0.3186214 0.32945594 -0.88878584
-0.04204395 0.027559264 -0.064857483 -0.025892034 0.38694203 -0.92174095
-0.025183635 0.024352755 -0.063979454 0.24543463 0.34065333 -0.9075892
-0.034138426 0.027261071 -0.06460198 0.11013002 0.39326474 -0.91280627
-0.038197137 0.024932899 -0.065925665 0.025121573 0.33416739 -0.94217944
-0.031935364 0.024580246 -0.065335408 0.15884492 0.34776545 -0.9240284
-0.035907708 0.023813302 -0.066127531 0.10485098 0.32820567 -0.93876952
-0.024148047 0.020919953 -0.064869054 0.28876761 0.27849561 -0.91599917
-0.042117726 0.023830114 -0.066288799 -0.032966886 0.31914139 -0.9471342
-0.032640979 0.020942541 -0.066678658 0.13316868 0.28043169 -0.95059192
-0.028589306 0.021353472 -0.065813467 0.1999854 0.30912957 -0.92975575
-0.048772737 0.020886507 -0.066583924 -0.1464071 0.27395004 -0.9505353
-0.03717174 0.020928161 -0.067164123 0.054007027 0.26834941 -0.96180707
-0.045200989 0.020591306 -0.067092046 -0.083888412 0.27959287 -0.9564473
-0.025417622 0.018660555 -0.065843619 0.23483951 0.25485921 -0.93802893
-0.042732831 0.019587282 -0.067551866 -0.043066889 0.24977699 -0.96734565
-0.040940672 0.018251706 -0.067933321 -0.01291469 0.21130878 -0.97733456
-0.048172835 0.015095276 -0.06799233 -0.12154425 0.19639927 -0.97296208
-0.037181284 0.017258668 -0.068044543 0.049391322 0.20500375 -0.97751468
-0.040598691 0.014526149 -0.068645462 -0.010812028 0.1624987 -0.98665005
-0.033081815 0.016351879 -0.067904733 0.11948454 0.2043214 -0.97158486
-0.036918987 0.013802941 -0.068671621 0.053640541 0.14790143 -0.98754692
-0.039946541 0.010177589 -0.069246747 -0.0054476503 0.093549199 -0.99560028
-0.030053955 0.011972836 -0.06818752 0.1585453 0.13240731 -0.97843379
-0.043683112 0.011492657 -0.068960011 -0.047064397 0.1285165 -0.99059045
-0.043729637 0.0088712759 -0.069230258 -0.050124701 0.062263947 -0.99680066
-0.037757132 0.0085968571 -0.069313571 0.051137459 0.080713615 -0.99542511
-0.040113784 0.0053393198 -0.069495991 -0.0032127602 0.023521934 -0.99971867
0.0069142533 -0.013721298 -0.044457525 0.22793576 0.52940673 -0.81717485
0.010580243 -0.01577309 -0.045683127 0.14514489 0.69076514 -0.70836258
0.0043602367 -0.016113784 -0.046233293 0.12102048 0.34556422 -0.93055922
0.009044108 -0.020025279 -0.048637934 -0.07695885 0.45897844 -0.88510853
0.018167084 -0.018766483 -0.046427835 0.29231188 0.79918081 -0.5252282
0.0042733033 -0.019825563 -0.047633708 -0.22131905 0.24019027 -0.94516009
0.013589598 -0.018996203 -0.0480357 0.083163247 0.63519758 -0.76786
0.016812859 -0.02001665 -0.048423503 0.14622207 0.69991523 -0.69909865
0.0011746342 -0.021990597 -0.046832241 -0.29931936 -0.067993008 -0.95172787
0.014049075 -0.021905659 -0.050005469 -0.033817805 0.50652033 -0.86156505
0.016790971 -0.022284226 -0.050340559 -0.007560946 0.5238384 -0.85178459
0.013379177 -0.024501432 -0.05114473 -0.20165242 0.26813281 -0.9420414
0.020661298 -0.022953654 -0.050555099 0.086248048 0.6333105 -0.76907742
0.013587257 -0.012348022 -0.038618278 0.58331573 0.80714774 -0.09086334
0.016206769 -0.014985611 -0.038539737 0.65097648 0.73437268 0.19216506
0.016348662 -0.025755396 -0.052141827 -0.13325123 0.39166099 -0.91041023
0.02264322 -0.026722949 -0.053278685 -0.0014418766 0.56176442 -0.82729656
0.027998446 -0.030390704 -0.055748448 0.015155135 0.57236737 -0.81985778
0.022543378 -0.029229358 -0.054565959 -0.1698736 0.36713746 -0.91452396
0.02747125 -0.032576855 -0.056742962 -0.18514819 0.32192913 -0.9284842
0.028825477 -0.035674352 -0.057881996 -0.28334436 0.15092249 -0.94706881
0.042702995 -0.036551002 -0.058962137 0.196776 0.71225947 -0.67377043
0.037618272 -0.036676224 -0.059973516 -0.00083864853 0.5442149 -0.83894598
0.039874814 -0.039775468 -0.061773714 -0.079612188 0.44553855 -0.89171654
0.013625083 -0.017353911 -0.020966236 0.9314546 -0.34817871 -0.10566443
0.013566194 -0.018226536 -0.018080868 0.92715937 -0.37010613 -0.058292937
0.012466526 -0.019301465 -0.025823068 0.96162325 -0.1816183 0.20566098
0.01190465 -0.021813395 -0.019340977 0.88826352 -0.45399731 -0.069824606
-0.028271647 -0.03914351 0.072128497 -0.24838965 -0.22151062 0.9429934
-0.055948142 -0.038473688 0.061984412 -0.53440773 -0.069119617 0.84239644
-0.049930833 -0.040745866 0.064936511 -0.41127199 -0.13470925 0.90150422
-0.04793271 -0.039648075 0.066004172 -0.3849166 -0.13233538 0.91341537
-0.031002793 -0.046133965 0.069691837 -0.21903285 -0.2456858 0.94427967
-0.024932642 -0.046471283 0.07108143 -0.2311589 -0.228732 0.945647
-0.063366443 0.011257441 -0.063175686 -0.61363828 0.52811682 0.58697659
-0.066553086 0.0055841836 -0.062008541 -0.81900579 0.5385974 0.19784637
-0.068001792 0.0026674513 -0.061378367 -0.8893854 0.4445217 0.1067483
-0.045029812 -0.029579878 0.068178028 -0.12913962 -0.29548195 0.94658035
-0.047185168 -0.029493779 0.06734965 -0.40644935 -0.066151574 0.91127598
-0.047334924 -0.033440258 0.066966549 -0.40191963 -0.081000417 0.91208577
-0.045624718 -0.032205231 0.067715921 -0.21668039 -0.14069793 0.96605104
-0.026512554 -0.03298296 0.073992975 -0.19270664 -0.19615129 0.96145201
-0.023353906 -0.032314662 0.074650757 -0.16691312 -0.17934021 0.96952462
-0.043218262 -0.039181758 0.067780294 -0.3343994 -0.13959609 0.93203592
-0.023060016 -0.039807096 0.073122777 -0.16783606 -0.23699255 0.95690471
-0.016764579 0.039010931 0.032847904 0.60600233 0.44660944 0.65825683
-0.018180221 0.037063491 0.035317965 0.57953364 0.41918242 0.69887614
-0.015516955 0.035340521 0.033970505 0.62613565 0.37936455 0.68120313
-0.019683428 0.03524939 0.037563905 0.47499704 0.47551599 0.74044806
-0.01704469 0.033101015 0.0365295 0.60452408 0.35085431 0.7151593
-0.011990937 0.031747978 0.032675181 0.63463622 0.36691165 0.68015718
-0.02082099 0.033343308 0.039481886 0.38299248 0.49205214 0.78179431
-0.015151805 0.029664833 0.036473371 0.61224914 0.32405379 0.7212081
-0.058998533 -0.040594034 0.059834138 -0.54559821 -0.048622388 0.83663571
-0.019024495 0.030360634 0.039325681 0.59841657 0.30195478 0.74210632
-0.019430289 0.026464762 0.041050199 0.58967942 0.22908926 0.77446574
-0.011823628 0.028168973 0.034277376 0.62647271 0.31583738 0.7125867
-0.013915307 0.026596611 0.036729675 0.60438788 0.27908951 0.74620718
-0.015923802 0.023694875 0.039249763 0.58638334 0.23399754 0.7755003
-0.023694513 0.022444099 0.045085691 0.63317883 0.10848653 0.76636565
-0.018831585 0.021959553 0.041805401 0.56439489 0.18692374 0.80406398
-0.021401102 0.022850044 0.04337959 0.56600714 0.16962256 0.80676204
-0.021911159 0.01826391 0.044551246 0.54658002 0.10262596 0.83109516
-0.019192306 0.01778665 0.042845991 0.55147141 0.13812678 0.82267922
-0.04566586 -0.038230088 0.067081541 -0.34711859 -0.1126534 0.93103117
-0.013210402 0.014995779 0.039207477 0.57334667 0.10924003 0.81199819
-0.016901992 0.015302206 0.041690256 0.5471049 0.093520731 0.83182389
-0.022833101 0.013314704 0.045508388 0.50814724 0.027216388 0.86084056
-0.018054672 0.011792457 0.042693093 0.5262664 0.033147335 0.84967399
-0.0081388718 0.006198579 0.03615481 0.59363025 -0.00090158882 0.80473793
-0.0095450571 0.0033668401 0.0371098 0.57182902 -0.04512807 0.8191312
-0.0066251643 0.002540949 0.034973554 0.60482317 -0.056298375 0.79436785
-0.031839352 -0.013266315 0.074004881 -0.35093617 0.068224363 0.93391126
-0.030354287 -0.015812336 0.074701965 -0.3273727 0.011426651 0.94482672
-0.026291206 -0.020814652 0.075502917 -0.22898901 -0.070438944 0.97087759
-0.024555417 -0.02366206 0.075697094 -0.22104934 -0.084008291 0.9716382
-0.0097817415 0.046440404 0.016368415 0.65640461 0.62997091 0.41505492
-0.0077066547 0.046553157 0.012791386 0.66269904 0.65581113 0.36158374
-0.012468615 0.044635806 0.022622047 0.63426369 0.59444451 0.49431399
-0.010589095 0.045356456 0.019108184 0.65119362 0.60487568 0.45833755
-0.0054146107 0.043109834 0.014450013 0.67606699 0.60900533 0.41478539
-0.010670335 0.041966598 0.023401203 0.65903735 0.54148835 0.52197808
-0.0076690987 0.04263055 0.018505054 0.67033678 0.57679361 0.4668605
-0.004329626 0.040578172 0.016174607 0.69227284 0.57322371 0.43837649
-0.00052980689 0.03875421 0.01232822 0.71108115 0.57869148 0.39935046
-0.0077079549 0.037678938 0.023907352 0.66666716 0.4980852 0.55449718
-0.0041706339 0.038204208 0.018749824 0.68957877 0.53538465 0.48769385
-0.0074245525 0.03970753 0.021569923 0.67409784 0.53954822 0.50446069
-0.0010235583 0.037225652 0.015189962 0.71989697 0.52769756 0.45087099
-0.004664252 0.03570104 0.021931438 0.68984032 0.48551935 0.53702164
-0.0015940381 0.034871068 0.018521771 0.70946592 0.48901251 0.50747001
-0.0028682661 0.032144278 0.022614125 0.7011621 0.43978742 0.56121284
0.0004182308 0.032499865 0.017944336 0.72372985 0.47335717 0.50214452
-0.0022277867 0.028801193 0.024228796 0.69801009 0.38956076 0.60085386
0.0027422186 0.029777698 0.017057523 0.75597519 0.4342553 0.4898212
0.00079202052 0.028712502 0.020607714 0.72107577 0.41332453 0.55606961
-0.003001594 0.024549775 0.02760613 0.68655246 0.32330987 0.65124309
-0.033036757 0.014621655 0.056441054 0.90037096 -0.27932739 0.3336305
0.012026784 0.010924963 0.011457278 0.90331572 0.10665844 0.41550651
0.013381511 0.0062948721 0.0092883324 0.92023301 0.022096323 0.39074799
0.0110646 -0.014130202 0.007172408 0.87314749 -0.32382679 0.36434934
-0.012333454 0.049427088 0.015886648 0.66750354 0.63837856 0.38329235
-0.013701578 0.041656096 0.027525842 0.62604278 0.552607 0.55017895
-0.015678376 0.041273758 0.029949436 0.48915944 0.64737701 0.58448875
-0.011839109 0.037484169 0.028851606 0.65685928 0.45208955 0.60345
-0.013386188 0.035904795 0.031512056 0.64529997 0.419319 0.63856137
-0.0090207513 0.02773192 0.031962395 0.64157444 0.32839459 0.69321007
-0.060592432 -0.03901308 0.058722306 -0.59253275 -0.036995415 0.80469698
0.044053093 -0.041338395 -0.047496799 0.60600895 0.12480398 0.7856068
0.046398897 -0.043459833 -0.049079783 0.53901517 -0.04865915 0.84088987
0.011584805 -0.010852405 0.0085567217 0.89239216 -0.25441688 0.37270543
0.016470091 -0.0019456112 -0.0019708227 0.97470772 -0.099270776 0.20022753
0.016295791 -0.0068295747 -0.0046580797 0.97324944 -0.17607574 0.14759362
0.015513359 -0.01170054 -0.0075306888 0.96210968 -0.25727794 0.090300031
0.050897017 -0.043510828 -0.052498609 0.66948134 0.34657618 0.6570242
0.016008334 -0.0028039145 -0.026551828 0.9709779 -0.080078669 -0.2253671
0.01603497 -0.011017901 -0.016997956 0.96655661 -0.25273028 -0.043552041
0.014766648 -0.0057917796 -0.029875826 0.94931847 -0.12843676 -0.28687876
-0.010978263 0.052371778 0.0062212273 0.6702835 0.70360905 0.23591377
-0.01056901 0.049788054 0.011946105 0.65144902 0.68216532 0.33206287
-0.0087360302 0.049360294 0.0090000508 0.65991801 0.69182944 0.29305491
-0.010202434 0.047922593 0.014681232 0.65860558 0.64849645 0.3816964
-0.0024888848 0.044696722 0.0056553693 0.69762099 0.65627533 0.28745201
0.013708035 -0.016258011 -0.029076697 0.85816658 0.30183727 0.41526535
0.01720118 -0.020779174 -0.030304441 0.66008246 0.29502463 0.69083476
0.014071147 -0.018351087 -0.028324291 0.70255184 0.23660639 0.67114788
-0.055001035 -0.041701231 0.062259778 -0.48091343 -0.11202888 0.86958182
0.024987636 -0.02432034 -0.036518615 0.680677 0.46625435 0.56505466
-0.065956384 0.0053057452 -0.063542187 -0.54932511 0.063732296 -0.83317536
-0.010812526 0.050963506 0.0097669447 0.63945609 0.70060784 0.31661591
-0.0073461481 0.05101734 -0.00011251451 0.65291524 0.74294162 0.14744677
-0.0072800429 0.051621947 -0.0035222322 0.64129382 0.75805628 0.11871754
-0.0043250048 0.049411163 -0.0059954287 0.65287846 0.75267875 0.085002638
-0.033778906 -0.020117324 0.073439322 -0.31694844 -0.046687275 0.94729352
0.0061268099 0.038142219 -0.0051512653 0.8178851 0.5647096 0.1103077
0.015622249 0.019276366 -0.013754394 0.95924753 0.28207031 -0.016776051
0.016201522 0.015047381 -0.019311303 0.974145 0.19493422 -0.1142066
0.017217493 0.011308129 -0.014919098 0.98883849 0.14520328 -0.033397306
0.016336154 0.0074738963 -0.024992172 0.97455174 0.080307342 -0.20928596
0.017803142 0.0038527253 -0.013976307 0.99974734 0.0074399533 -0.021234924
0.017294331 0.003879776 -0.0052975081 0.9902848 -0.008256847 0.13881183
0.017585924 -0.00025450156 -0.016901461 0.99661165 -0.051246446 -0.064342737
0.017367048 -0.0040101185 -0.012872499 0.99154818 -0.12827449 0.019462012
0.016995315 -0.004356835 -0.019614371 0.98788184 -0.11639962 -0.10267221
0.017199501 -0.0037603369 -0.0084678354 0.98893666 -0.12123557 0.085481763
0.013528714 -0.0082340557 -0.032362174 0.93246663 -0.12882382 -0.33750761
0.016434086 -0.0069565424 -0.020871436 0.97812229 -0.1728712 -0.11572988
0.01662921 -0.0086354539 -0.012413904 0.97876108 -0.2036639 0.023426395
0.015611804 -0.0089241499 -0.024125809 0.96646321 -0.19454139 -0.1676413
0.015982769 -0.010062356 -0.019709654 0.97095603 -0.2113727 -0.11210208
0.013653127 -0.014082966 -0.031815998 0.8280645 0.51461196 0.22245155
0.014874097 -0.014997077 -0.01440559 0.94650722 -0.32241398 -0.013205211
0.013293908 -0.015753565 -0.027224602 0.97360903 -0.22303559 -0.048390795
-0.06905517 5.5068496e-05 -0.059666682 -0.43816194 0.5345552 0.72267956
0.016877925 -0.014737602 -0.040465143 0.45797098 0.84164846 -0.28616661
-0.022019105 0.053743575 -0.036636911 0.37546027 0.79865253 -0.47030285
-0.022676855 0.052361321 -0.039408311 0.36698833 0.78629106 -0.49705824
-0.025013829 0.052784409 -0.040351257 0.33232337 0.78319037 -0.52552354
-0.019290198 0.052169748 -0.037049565 0.41538525 0.78766245 -0.45502079
-0.017936567 0.05093623 -0.03784886 0.41267431 0.78606117 -0.46022674
-0.020709498 0.050505273 -0.04079457 0.38197145 0.77516413 -0.50320894
-0.015428161 0.049013529 -0.03888151 0.43342409 0.76798326 -0.47153598
-0.024810888 0.049526509 -0.044759572 0.32277 0.74715054 -0.58102196
-0.019136321 0.047776621 -0.043700706 0.3659859 0.74790323 -0.55380142
-0.021541242 0.047150545 -0.045978036 0.33477634 0.73317873 -0.59192449
-0.013444696 0.04611659 -0.041478865 0.47112975 0.72021639 -0.50924069
-0.015736559 0.046614148 -0.042833127 0.4219622 0.72751337 -0.5409928
-0.018762719 0.044615828 -0.047375292 0.37634599 0.70599687 -0.59994423
-0.012758412 0.04341099 -0.044498686 0.4732919 0.68152571 -0.55813843
-0.0059617967 0.041408006 -0.040076043 0.59414881 0.63996667 -0.48726872
-0.0086943908 0.042726535 -0.041432232 0.55412132 0.66871691 -0.49575013
-0.010568493 0.042332813 -0.043806095 0.51478636 0.65545964 -0.55260164
-0.016165847 0.041089494 -0.049523327 0.42321721 0.62268418 -0.65814334
-0.008078956 0.040554632 -0.043502867 0.55566311 0.61862129 -0.55547005
-0.011704323 0.039673127 -0.047726624 0.48167202 0.6155715 -0.62375057
-0.018395808 0.039881978 -0.051935539 0.38064721 0.61117905 -0.69395155
-0.021446021 0.039687682 -0.053672396 0.32690421 0.60025811 -0.72994846
-0.02490369 0.039113555 -0.055491742 0.27186799 0.59236556 -0.75841403
-0.011520362 0.035738733 -0.051070794 0.47906834 0.53049004 -0.69933885
-0.0024215637 0.034791876 -0.043308437 0.64966488 0.53084975 -0.54418284
-0.015167013 0.037365634 -0.052166477 0.43662927 0.57318449 -0.69340855
-0.019050956 0.037157029 -0.054512713 0.37526926 0.5656721 -0.73429489
-0.02258585 0.03661767 -0.056521736 0.31503922 0.5438475 -0.77780527
-0.052621886 -0.040386602 0.063712984 -0.45870301 -0.11625823 0.88095212
-0.017144097 0.034161173 -0.055749748 0.41482249 0.51582223 -0.74956691
-0.01698575 0.056554135 -0.024215305 0.46359667 0.84481007 -0.26716104
-0.017545251 0.031106602 -0.057854902 0.38933793 0.43884772 -0.80983311
-0.014296746 0.030583875 -0.056401819 0.44453698 0.44627884 -0.77667439
-0.011085017 0.030504925 -0.054412346 0.50317562 0.46356073 -0.72933298
-0.007287059 0.028662348 -0.052655432 0.55932206 0.42637423 -0.71089017
-0.015994232 0.025793806 -0.05980983 0.40664139 0.37849605 -0.83149529
-0.012562875 0.027000042 -0.05733297 0.47902936 0.3944332 -0.78419012
-0.020283481 0.025385141 -0.061865754 0.35329899 0.36143726 -0.8628695
-0.0089925388 0.024822762 -0.056065049 0.549519 0.36864331 -0.74975455
-0.0085453903 0.020467583 -0.057509974 0.5449453 0.2848978 -0.7885865
-0.011713242 0.022562539 -0.058820888 0.48460308 0.31730911 -0.81515384
-0.014262926 0.02185379 -0.060481347 0.4330408 0.30071652 -0.84973288
-0.018014994 0.020579506 -0.062734172 0.3729673 0.28610405 -0.88263297
0.0052140858 0.0063593481 -0.048352752 0.78020042 0.059697632 -0.62267518
-0.0010769294 0.0077999681 -0.054813623 0.66192496 0.085147142 -0.74471903
0.010831499 -0.011653772 -0.039140489 0.53725755 0.65315557 -0.53361326
0.013412689 -0.013657647 -0.040434908 0.33616439 0.80998188 -0.48054531
0.0092548979 -0.013373481 -0.043252911 0.29219085 0.75754017 -0.583745
0.016246976 -0.016050059 -0.042701367 0.33082566 0.81290764 -0.47930849
0.014029545 -0.015314794 -0.043466456 0.3294259 0.8097778 -0.48553005
0.013319064 -0.016584916 -0.045708112 0.27038017 0.7676056 -0.58109993
0.01679112 -0.0073882365 -0.016345259 0.98405689 -0.16957794 -0.053631414
0.018613169 -0.017347006 -0.043230876 0.32552758 0.81805122 -0.47415707
0.026376141 -0.02168967 -0.045698024 0.51753056 0.84465915 -0.13679874
0.021225303 -0.020797115 -0.047665004 0.30239311 0.78861934 -0.53538656
0.0262022 -0.023045408 -0.047567718 0.31551892 0.80411154 -0.50383866
0.025556093 -0.024679558 -0.051047329 0.2300909 0.76359361 -0.60331082
0.023338478 -0.023015875 -0.049878664 0.26918057 0.76186639 -0.58915395
0.028610727 -0.025718395 -0.050919786 0.34175617 0.81431276 -0.46914646
0.028437935 -0.027340151 -0.053165115 0.13887294 0.68590188 -0.71432066
0.032803629 -0.029630134 -0.054400042 0.24256152 0.75781274 -0.60571009
0.035460219 -0.030706689 -0.054418799 0.30586126 0.78868067 -0.53332222
0.037008025 -0.033410076 -0.057428647 0.1219226 0.66283387 -0.73877406
0.03946545 -0.032738496 -0.054652646 0.30665249 0.78378856 -0.54003763
0.039777011 -0.034746449 -0.057970092 0.26607028 0.76129681 -0.59129918
0.043747675 -0.03574134 -0.056735653 0.32967696 0.78961307 -0.51751828
0.046580683 -0.039156847 -0.06066791 0.29776067 0.79535061 -0.52797431
0.043890763 -0.040010501 -0.062009517 0.0068923132 0.59035438 -0.80711526
0.049610816 -0.039797742 -0.058969755 0.50129926 0.82740325 -0.25318727
0.047765646 -0.040625043 -0.062214792 0.16667189 0.69763666 -0.69679594
0.018716674 -0.017073032 -0.037684478 0.6345498 0.74987984 0.18715729
0.044171855 -0.044533912 -0.064299785 -0.29997021 0.23415464 -0.92476511
-0.010294665 0.047151826 -0.036731157 0.5178411 0.74057513 -0.42824072
-0.007100373 0.047590498 -0.031207789 0.58139032 0.73970646 -0.33885181
-0.0047590453 0.044604063 -0.033521254 0.61262351 0.69831216 -0.37020734
-6.6335102e-05 0.042539284 -0.028429823 0.69614911 0.65441996 -0.29514739
0.021592673 -0.018164366 -0.042991117 0.56729007 0.8118034 -0.13841252
0.00028148908 0.039413203 -0.033586774 0.69945091 0.62235188 -0.3513509
0.0012513277 0.037780426 -0.034354068 0.71294618 0.5786556 -0.39606357
0.010092348 0.022641672 -0.033924215 0.8743695 0.31804955 -0.36650142
0.0088586314 0.022869596 -0.03654708 0.82823026 0.35335955 -0.43493992
0.014770571 0.016167412 -0.025991606 0.9425512 0.23031147 -0.24198115
0.01336638 0.015945395 -0.030907683 0.92623359 0.22626255 -0.30149224
0.014289932 0.01306971 -0.030099871 0.93265325 0.17451979 -0.3157559
0.011361545 0.014171991 -0.03684983 0.88669288 0.18086775 -0.42551562
0.0099184802 0.011627221 -0.040492848 0.86386007 0.14113547 -0.48355716
0.011477574 0.010504896 -0.037861589 0.88496614 0.14155608 -0.44361907
0.014259871 0.010082306 -0.031461079 0.9342345 0.11483373 -0.33766875
0.011829693 0.0075997123 -0.038013104 0.88622546 0.099028662 -0.4525471
0.013470488 0.0011317487 -0.034911979 0.91940808 -0.021756122 -0.39270416
0.012330025 -0.002162813 -0.037074421 0.90700495 -0.070593886 -0.41516218
0.014237548 -0.0033610053 -0.032298785 0.93117625 -0.087484971 -0.35391831
0.013198819 -0.0056830449 -0.034299634 0.91030645 -0.12451576 -0.39476451
0.010598227 -0.0076928549 -0.039084036 0.87651104 -0.10084037 -0.47070235
0.0068052723 -0.0046772324 -0.04575564 0.79101163 -0.13426942 -0.59688622
0.0068710037 -0.0092541724 -0.044434417 0.79734021 -0.15077788 -0.58439326
0.0078486642 -0.010997758 -0.042720772 0.76944417 -0.0053278613 -0.63869274
0.021851903 -0.019189982 -0.044210602 0.37973738 0.8254056 -0.41773909
0.026546 -0.02257571 -0.044018459 0.64862919 0.74054366 0.17571636
0.028430602 -0.024381509 -0.04206904 0.66157061 0.6825707 0.31051999
0.028336782 -0.024696888 -0.048826449 0.30889934 0.80647862 -0.50415713
0.036709744 -0.029510412 -0.050783269 0.60459399 0.79484785 0.051807061
0.038164381 -0.030306309 -0.05213666 0.411073 0.85058004 -0.32792297
0.040170152 -0.031746395 -0.05324284 0.56057215 0.8228085 -0.093519539
0.050606739 -0.040488474 -0.055985782 0.64002281 0.76056361 0.10915501
0.051189534 -0.041669011 -0.054914359 0.69222206 0.56100225 0.45398909
0.044943932 -0.04300952 -0.063922741 -0.098724857 0.4859162 -0.8684122
0.026398081 -0.023347095 -0.039769232 0.68474394 0.64275241 0.34350559
0.034660097 -0.028322008 -0.049062863 0.65490615 0.72940522 0.19765384
0.042802271 -0.034833655 -0.051146656 0.66261196 0.70228469 0.2602739
-0.0048214942 0.049995616 -0.0082741193 0.64269495 0.76463163 0.04777877
-0.0026658264 0.048312001 -0.010487393 0.65386689 0.75560826 0.038926113
-0.0033952957 0.048202839 -0.020104688 0.64196932 0.75396448 -0.13933428
0.011340221 -0.010412468 -0.03757371 0.84419394 0.38406855 -0.37393704
0.012413004 -0.012185484 -0.036030192 0.75456798 0.65378469 0.056513701
-0.075735308 -0.020093208 -0.05039965 -0.56169784 -0.46199238 -0.68633777
-0.077806942 -0.02003756 -0.048664127 -0.7604841 -0.31857076 -0.56584233
-0.079129033 -0.025340971 -0.043559883 -0.56461674 -0.55172652 -0.61384565
-0.028339209 0.051851634 -0.04340218 0.26962754 0.7935487 -0.54551107
-0.052155104 0.022076385 -0.065636836 -0.19033486 0.28832874 -0.93842429
-0.047385439 0.018725799 -0.067350633 -0.11653293 0.21843632 -0.96886873
-0.050802823 0.017699711 -0.06702207 -0.17152017 0.21923184 -0.9604786
-0.053166978 0.019762848 -0.066134341 -0.19128914 0.23650536 -0.95261467
-0.058772434 0.017653201 -0.06527324 -0.45068532 0.30170089 -0.84015489
-0.052694865 0.015506994 -0.067123562 -0.19781013 0.16984957 -0.96541351
-0.055359025 0.01755533 -0.066115916 -0.21985725 0.19737454 -0.95535707
-0.045189984 0.014292063 -0.068462089 -0.079043739 0.17046966 -0.98218793
-0.055036694 0.013791769 -0.066868387 -0.23993485 0.13548546 -0.96128863
-0.045776293 0.010124137 -0.0689734 -0.10846329 0.10462133 -0.98858035
-0.051151261 0.010968536 -0.068071678 -0.19549303 0.10619886 -0.97493857
-0.054372724 0.0097919097 -0.067513458 -0.24137482 0.075696029 -0.96747571
-0.058479287 0.014182348 -0.065844283 -0.27299017 0.12196808 -0.95425427
-0.061252177 0.013681218 -0.06510441 -0.45113128 0.18498516 -0.87307614
-0.057532623 0.011209558 -0.06645152 -0.2808609 0.094303317 -0.95510465
-0.058034204 0.0081937034 -0.066536531 -0.2881684 0.048475184 -0.95635253
-0.050756864 0.006857838 -0.068449527 -0.19935428 0.035826076 -0.9792729
-0.054331914 0.0064795529 -0.067647986 -0.24967974 0.016165126 -0.96819401
-0.059890822 0.0072163804 -0.06600289 -0.31972742 0.02545199 -0.94716823
-0.0569073 0.0038661191 -0.066948131 -0.28795826 -0.024713833 -0.95732456
-0.062363751 0.0064852946 -0.065047897 -0.35778573 -0.020067334 -0.93358862
-0.059600241 0.0034009481 -0.066039935 -0.3430047 -0.032196723 -0.93878227
-0.063431896 0.0036672717 -0.064586475 -0.37845215 -0.033562411 -0.92501271
-0.052606989 0.0025728424 -0.06806124 -0.22790527 -0.026763115 -0.97331589
0.0076651596 -0.023409374 -0.049293917 -0.30713874 0.14870016 -0.93997616
-0.062755719 0.0008424134 -0.064707279 -0.37958166 -0.0717225 -0.92237449
-0.065513186 0.0025327168 -0.063580818 -0.42392728 -0.062598318 -0.9035309
0.011055175 -0.023094505 -0.050161093 -0.20793413 0.29366261 -0.93302017
-0.055273827 0.00055917591 -0.067260206 -0.27071115 -0.066639714 -0.96035177
0.0055172276 -0.022982392 -0.048597999 -0.31756026 0.085301839 -0.94439405
-0.060122542 0.00090525363 -0.065704048 -0.33056286 -0.077905133 -0.94056368
0.010031226 -0.026038408 -0.050417677 -0.33831826 0.075059533 -0.938034
-0.053706482 -0.0013716409 -0.067486949 -0.24451555 -0.102838 -0.96417707
-0.057547238 -0.00099243363 -0.066421248 -0.30246282 -0.086715035 -0.94920903
0.016403716 -0.028343314 -0.052807681 -0.340785 0.11620239 -0.93293273
-0.061766066 -0.0020876098 -0.064788088 -0.3669239 -0.1242473 -0.92191678
-0.066460535 -0.0029836574 -0.062539898 -0.42533144 -0.14735173 -0.89296228
-0.063423634 -0.0037094164 -0.063840047 -0.39914042 -0.15265273 -0.90409344
0.019474778 -0.029795824 -0.054076366 -0.26124313 0.20635942 -0.94295746
-0.068860926 -0.0042584427 -0.061142571 -0.46793395 -0.18435715 -0.86432129
0.023784079 -0.033009838 -0.055879701 -0.33108354 0.076228485 -0.9405179
0.021590404 -0.034396701 -0.055001613 -0.40163392 -0.10042243 -0.91027826
-0.073759444 -0.0098916665 -0.056821663 -0.73681623 -0.096350163 -0.66919321
-0.061441135 -0.010977544 -0.062958837 -0.37879536 -0.27286851 -0.88434035
-0.067659855 -0.0095785521 -0.060433421 -0.44656333 -0.26198018 -0.85553986
-0.011513124 0.053223461 0.0067690262 0.27603367 0.90819818 0.31461498
-0.075029805 -0.012924118 -0.054718424 -0.73557556 -0.14933005 -0.66077995
-0.075967491 -0.014711355 -0.053341094 -0.90175003 0.0082006641 -0.4321813
0.038350835 -0.04245878 -0.061820835 -0.36976498 0.016947985 -0.92897129
0.041456375 -0.042628836 -0.062936582 -0.28316766 0.23150942 -0.93070972
0.042810798 -0.045970041 -0.063980423 -0.47690168 0.00011859588 -0.87895721
0.039858524 -0.045633554 -0.062228907 -0.52318728 -0.21232109 -0.82534581
-0.016557135 0.040166754 0.031798299 0.51628715 0.60020429 0.61090356
-0.074402668 -0.010459484 -0.054253824 -0.89539373 0.43873671 0.076035015
-0.055991434 0.022672931 -0.063818626 -0.65671569 0.50757051 -0.55776137
-0.076931894 -0.01749666 -0.05109698 -0.78707319 -0.21430017 -0.57843941
-0.043337353 0.038728554 -0.058791794 -0.29076225 0.75192618 -0.59166312
-0.046821054 0.034518804 -0.06111037 -0.56422979 0.71151912 -0.41879132
-0.043359149 0.033313371 -0.062128358 -0.01886607 0.47040755 -0.88224816
-0.050072715 0.029862517 -0.063319281 -0.30962789 0.50461739 -0.80591118
-0.051163603 0.029587779 -0.062358603 -0.72775459 0.63320225 0.26349425
-0.050012559 0.024863651 -0.065182604 -0.13948704 0.30809867 -0.9410736
-0.055048741 0.024190184 -0.06348855 -0.67810911 0.38925087 0.6234203
-0.054319691 0.024204416 -0.064684764 -0.38131461 0.31987366 -0.86734122
-0.056398831 0.021308646 -0.065002374 -0.35302502 0.38709584 -0.85178107
-0.059487045 0.017666476 -0.063895978 -0.75897014 0.64493972 0.089543588
-0.049689971 0.01378685 -0.0680077 -0.14866769 0.13219751 -0.98001158
-0.047543723 0.033610381 -0.061783154 -0.10601564 0.49945393 -0.85982984
-0.062545888 0.011385022 -0.064896636 -0.572501 0.24449225 -0.78260279
-0.078212008 -0.021910518 -0.047012929 -0.58112091 -0.49081782 -0.64915127
-0.06376522 0.0094076172 -0.064525358 -0.48494732 0.12228177 -0.86595279
-0.065220416 0.0071998499 -0.064040877 -0.64060402 0.16581196 -0.74975592
-0.067324139 0.0036651797 -0.062746964 -0.6357004 0.096230872 -0.7659148
-0.065369509 -0.00021667703 -0.063432999 -0.41793069 -0.095978849 -0.9033953
-0.068928085 -5.0045011e-05 -0.061771885 -0.6568386 0.058090337 -0.75179088
-0.070271425 -0.0025012321 -0.060642488 -0.74173832 0.069275022 -0.66710287
-0.070947409 -0.0036616109 -0.059901688 -0.87736756 0.21667284 -0.42811236
-0.078952596 -0.022991927 -0.045456771 -0.58624303 -0.49152124 -0.6439929
-0.071651146 -0.0056803995 -0.059265636 -0.65183055 -0.069773793 -0.75514871
-0.072400577 -0.006167606 -0.057382312 -0.79224861 0.53958029 0.28494915
-0.072447509 -0.0069206674 -0.058473989 -0.79498327 0.038439963 -0.60541296
-0.070806064 -0.0086344676 -0.058954939 -0.47700882 -0.24794036 -0.84320176
-0.073487438 -0.0084659802 -0.055906072 -0.90029615 0.43491572 0.017781528
-0.060671836 0.015989855 -0.063794732 -0.84605002 0.5025779 -0.17780796
-0.029363766 0.046098415 -0.050754424 0.23252614 0.68988723 -0.68555683
-0.052819807 0.025950029 -0.06430307 -0.23177688 0.39319956 -0.88976109
0.031917002 -0.034047931 -0.05805489 -0.08081989 0.42247686 -0.90276378
-0.033842698 0.047895741 -0.0500076 0.11460359 0.73515755 -0.6681394
-0.017781263 0.038455799 0.033593852 0.043246523 0.7723521 0.63372159
-0.048291571 0.031892546 -0.06258256 -0.17376001 0.47159272 -0.864528
-0.030906772 -0.043366354 0.070516765 -0.21056837 -0.23229299 0.94957983
-0.017104292 0.05716012 -0.022036634 0.47863907 0.85381985 -0.20468813
-0.027060291 0.052872747 -0.041317761 0.27735725 0.79167831 -0.54435211
-0.04845956 0.032611534 -0.061581049 -0.80353665 0.58868539 0.088199869
-0.011882343 0.054590397 0.0016525813 0.63401473 0.75890559 0.14862318
-0.011744176 0.053519335 0.0052838386 0.59127069 0.77936965 0.20732301
-0.035273179 0.046524689 -0.051555656 0.095114671 0.72261107 -0.68468064
-0.011711462 0.052418645 0.0084324926 0.56003946 0.77097774 0.30323267
-0.012580331 0.052210361 0.008092802 -0.39267248 0.87067646 0.29619533
-0.012039904 0.051505513 0.010925799 0.50991243 0.79251188 0.33453715
-0.012152003 0.050425097 0.013707384 0.6538642 0.67478508 0.34223941
-0.013297054 0.046900209 0.020822886 0.63025343 0.60867906 0.48196623
-0.014263587 0.044532262 0.024880469 0.57960886 0.61621183 0.53323299
-0.033301983 -0.043194368 0.069984056 -0.21801107 -0.23225392 0.9479084
-0.047135472 -0.042292699 0.065837197 -0.37635246 -0.17033999 0.91068339
-0.034057681 -0.043822668 0.069673628 -0.20078824 -0.2579391 0.94506741
-0.035454433 -0.0090861274 0.071890868 -0.44537801 0.18999033 0.87495315
-0.035116564 -0.011829601 0.072517738 -0.41297606 0.12645476 0.90192074
