# .PCD v0.7 - Point Cloud Data file format
VERSION 0.7
FIELDS x y z normal_x normal_y normal_z
SIZE 4 4 4 4 4 4
TYPE F F F F F F
COUNT 1 1 1 1 1 1
WIDTH 650
HEIGHT 1
VIEWPOINT 0 0 0 1 0 0 0
POINTS 650
DATA ascii
0.038765233 0.045932762 0.040162943 0.63941556 0.039616711 0.76784062
0.011037982 -0.043948635 0.058231957 0.13417637 0.014764204 0.99084795
0.013121073 -0.0042201336 0.055364508 0.17025822 0.063863337 0.98332834
0.035245016 -0.072085947 -0.054029822 -0.55762643 0.30223987 0.77311367
0.032366205 -0.0728058 -0.055955462 -0.58111864 0.29371575 0.75896835
-0.048727557 0.071710162 0.012289951 -0.96903652 0.027794428 0.24535003
0.059755418 -0.061459851 0.017603347 0.93156809 -0.11123101 0.34613511
0.049219016 -0.067794703 -0.043996897 -0.69085771 0.011281116 0.72290343
0.047927216 -0.069989972 -0.045635361 -0.66788852 0.10432525 0.73691404
0.0098289838 -0.066883795 -0.064078793 -0.11388746 -0.038207643 0.99275923
0.045986556 -0.065697581 -0.047312077 -0.66927105 -0.083087169 0.73835886
0.034882534 -0.068006806 -0.055885963 -0.51988328 0.063215107 0.85189557
0.038712446 -0.065449551 -0.053069215 -0.5691666 -0.1112947 0.8146556
0.031056846 -0.063143589 -0.056585051 -0.32666501 -0.15241644 0.93277019
0.034664024 -0.063629173 -0.055401128 -0.45356962 -0.15073064 0.8783825
0.040610123 -0.062632397 -0.051043805 -0.61591578 -0.10859473 0.78029215
0.049020398 -0.063415453 -0.044265304 -0.66404819 -0.0600271 0.74527699
0.044108987 -0.059883144 -0.047805596 -0.63526952 -0.12624441 0.76190287
0.037849359 -0.060171943 -0.052857257 -0.54354602 -0.097361572 0.83371413
0.041464612 -0.057811711 -0.050061181 -0.6130383 -0.050246909 0.78845423
0.033629701 -0.059983037 -0.055013616 -0.44792002 -0.076464616 0.89079839
0.062148578 -0.064614162 0.014736963 0.94926679 0.094973095 0.2997894
0.062593125 -0.048664078 -0.010582372 0.98817861 0.021909766 -0.15173656
0.0023472721 -0.067063443 0.05883465 0.10172193 0.047411405 0.99368292
-0.032584187 -0.070447728 0.048356023 -0.60149086 0.28210646 0.7474125
0.0053365207 -0.064595856 0.058389477 0.11740466 -0.1304644 0.98447764
0.0059515028 -0.062732443 0.058829922 0.09723106 -0.040476263 0.99443883
-0.003650099 -0.066018991 0.058463544 -0.023765367 0.11266243 0.99334949
-0.023691574 -0.06951227 0.053583484 -0.47371897 0.24545999 0.84577811
-0.028023947 -0.069652148 0.051110152 -0.48544276 0.22292039 0.84537131
-0.0027978739 -0.06326592 0.058479335 -0.097589523 0.049212478 0.99400973
-0.030807421 -0.071885534 0.05079652 -0.52581763 0.38059837 0.76069808
0.013299698 -0.060454898 0.057904787 0.1433042 0.02401985 0.98938763
0.010242645 -0.062141478 0.057999276 0.12868331 -0.070492685 0.98917758
-0.03668458 -0.067031801 0.043819051 -0.66364944 0.1294799 0.73675334
-0.00062202063 -0.060343795 0.058706019 -0.070376016 -0.021694938 0.99728507
-0.028154524 -0.064303033 0.050127849 -0.53494656 0.057592429 0.8429212
-0.031084923 -0.067821279 0.04857124 -0.55349439 0.21705832 0.80407125
-0.035140954 -0.069478102 0.046400372 -0.59747398 0.22056668 0.77095783
0.017446699 -0.057948746 0.056904003 0.24297278 0.0012059332 0.97003287
-0.041537847 -0.067757934 0.039321072 -0.78267837 0.178069 0.59641171
0.0096178101 -0.059313856 0.058124389 0.12209056 -0.035680722 0.99187791
-0.024680899 -0.066228852 0.052076455 -0.45091128 0.11842532 0.88467824
-0.039806593 -0.063383736 0.041110493 -0.71418327 0.0043657455 0.69994587
0.0045468765 -0.058342058 0.058754344 0.040760547 -0.029674949 0.99872863
-0.033545963 -0.064458102 0.046261426 -0.60918719 0.05237902 0.79129523
-0.034361508 -0.058832984 0.04589767 -0.61298573 -0.0038897528 0.79008496
-0.024938464 -0.061407454 0.052009445 -0.46345761 -0.0065012737 0.88609588
0.010110158 -0.05206247 0.058561452 0.12921467 0.038518216 0.99086875
-0.015279458 -0.060229983 0.056018665 -0.32330069 -0.014252832 0.94618952
0.019352965 -0.050809626 0.056592811 0.27634034 0.0034581122 0.96105409
-0.029626716 -0.060105704 0.049260475 -0.55673927 0.0060943398 0.83066547
-0.002996579 -0.052914683 0.05857436 -0.11751886 0.003451556 0.99306518
-0.017777128 -0.056444816 0.055127647 -0.36257142 0.0016933992 0.93195498
-0.031566888 -0.057299871 0.047574811 -0.57273245 0.0093410704 0.81968963
-0.02768058 -0.056328621 0.050356254 -0.52865791 -0.010448271 0.84877115
-0.031505015 -0.053684667 0.047968913 -0.57366562 -0.023902973 0.81874132
-0.0012753004 -0.049133312 0.058610365 -0.05386962 0.016975017 0.99840415
-0.026710331 -0.050643712 0.051151916 -0.48246938 0.0098501649 0.87585807
-0.028953249 -0.049662832 0.049626689 -0.55638182 0.020463414 0.8306753
-0.023596089 -0.052850135 0.052786186 -0.41578984 0.012474776 0.90937573
-0.036231231 -0.048048329 0.044094909 -0.66944653 0.0075593106 0.74282247
-0.041260652 -0.048263468 0.039259221 -0.72832686 0.0051001855 0.68521172
-0.037220847 -0.044415418 0.043313038 -0.67860883 0.0095048686 0.73443907
-0.032678857 -0.048092622 0.047091383 -0.59560394 0.017146297 0.80309582
-0.03321328 -0.042156354 0.046537142 -0.60958922 0.013505214 0.79260296
-0.028070524 -0.044418667 0.050041053 -0.52855039 0.017574439 0.84872049
-0.041822031 -0.04063376 0.038614828 -0.75884402 0.022313451 0.65089095
-0.038157698 -0.041004982 0.042252265 -0.68626326 0.019117225 0.72710276
-0.025312843 -0.038770303 0.051643424 -0.47529322 0.007249766 0.87979817
-0.028815486 -0.039771259 0.04958998 -0.54506874 0.007024175 0.83836251
-0.034264658 -0.034946047 0.045613743 -0.62838233 0.043181557 0.77670598
-0.026149627 -0.03413998 0.051110491 -0.4821963 0.0049750432 0.87604976
-0.032508098 -0.038407978 0.046982802 -0.59709966 0.0097763846 0.80210799
-0.039996885 -0.036912743 0.040306881 -0.72305191 0.025767945 0.69031364
-0.030594092 -0.033743359 0.048297059 -0.58107537 0.034442633 0.81312114
-0.03419615 -0.030633464 0.045222446 -0.62417054 0.058494788 0.77909589
-0.026746605 -0.030418571 0.050921317 -0.50103801 0.075643048 0.8621136
-0.03623848 -0.031887509 0.04358473 -0.65889776 0.059558067 0.74987167
-0.012878007 -0.031542845 0.056382291 -0.25431979 0.039500229 0.96631372
-0.029267479 -0.029203214 0.048930399 -0.56293416 0.12134255 0.81754637
-0.030822687 -0.02718115 0.047546804 -0.60053951 0.063514806 0.79706901
-0.021440968 -0.02102387 0.053057276 -0.29741961 0.50431383 0.81068492
-0.034097519 -0.022221578 0.045995142 -0.46697253 0.49279389 0.73422873
-0.024587732 -0.019119553 0.050324671 -0.43584937 0.18769923 0.88023025
-0.028394453 -0.019707138 0.047934696 -0.52886099 0.2101441 0.82228124
-0.032612722 -0.019533522 0.045135334 -0.5983023 0.18957847 0.77852118
-0.036703087 -0.014485778 0.040879603 -0.67433405 0.073675819 0.73474246
-0.029387278 -0.016690923 0.04688384 -0.54716456 0.097794659 0.83129299
-0.033047955 -0.014018344 0.043958649 -0.62456858 0.080721878 0.77678758
-0.041675698 -0.010461408 0.035431299 -0.77950507 0.052857786 0.6241625
-0.024503827 -0.015083908 0.04971968 -0.48140609 0.093839116 0.87146038
-0.027188705 -0.012742265 0.04786063 -0.5199694 0.057620034 0.85223967
-0.030501004 -0.011867337 0.04571354 -0.58067954 0.057530299 0.81209749
-0.024122043 -0.011982344 0.049597979 -0.46766186 0.054456647 0.88222903
-0.036457881 -0.0054448708 0.040483955 -0.67982155 0.044345189 0.73203629
-0.035544507 -0.010229771 0.041610312 -0.66014856 0.051657781 0.74935728
-0.026776463 -0.0077796001 0.04797687 -0.51691914 0.042683747 0.85496998
-0.030771427 -0.0072306879 0.045212388 -0.60282296 0.048459813 0.79640257
-0.027850445 -0.0032060482 0.047036499 -0.53133333 0.044478238 0.84599495
-0.022654423 -0.0018146913 0.049924903 -0.46211082 0.044054493 0.88572788
-0.025192885 0.002373748 0.048311956 -0.49703646 0.041920051 0.86671698
-0.030189818 0.004296652 0.045158941 -0.57769674 0.043039527 0.81511658
-0.036869273 0.0065885643 0.03934079 -0.68344772 0.041725453 0.72880667
0.014887304 0.015482557 0.053931113 0.22884609 0.052942384 0.97202241
-0.017082455 0.0087389247 0.051908247 -0.36066338 0.041521545 0.93177199
-0.038540605 0.0097165182 0.037448317 -0.73945403 0.047317468 0.67154276
-0.032918885 0.011159758 0.0425607 -0.620327 0.036616411 0.78348869
-0.024762006 0.015664941 0.048066195 -0.50294268 0.036888771 0.86353272
-0.03363765 0.014378283 0.041882627 -0.65021223 0.044192072 0.75846702
-0.038980555 0.019481074 0.036175348 -0.75854456 0.045727495 0.65001553
-0.022823092 0.021720622 0.048616227 -0.46190962 0.046626844 0.88570112
-0.028046366 0.022315135 0.04552016 -0.55751801 0.039605312 0.82922006
-0.015880901 0.026226085 0.051515028 -0.32460186 0.050261877 0.94451487
-0.038516268 0.025529668 0.03632842 -0.7429837 0.052115038 0.66727823
-0.020862458 0.036411718 0.048737455 -0.43857074 0.060374714 0.89666694
-0.028571378 0.035123803 0.044414558 -0.58697242 0.056184992 0.80765557
-0.024494557 0.045869183 0.046539955 -0.51040351 0.0450048 0.85875702
-0.0088544013 0.061982859 0.051571488 -0.20902407 0.05221913 0.97651577
-0.013452421 0.065114364 0.050200596 -0.31857339 0.051142506 0.94651812
0.011117621 0.071162641 0.051627856 0.15451142 0.053940214 0.98651797
0.014267722 0.071347602 0.051037908 0.24911685 0.064874895 0.96629858
0.01979644 -0.043705698 0.056303397 0.29497743 0.031248843 0.95499361
-0.019091789 -0.039264921 0.054458555 -0.36492321 -0.01334496 0.93094254
-0.014743432 -0.04201737 0.056065373 -0.33723789 -0.0019316861 0.94141799
0.065752484 -0.060859777 -0.001991173 -0.99952167 -0.024835052 -0.018454326
0.063456416 -0.059405338 -0.016948761 -0.94674402 -0.092715725 0.3083511
-0.049161714 -0.068493783 -0.036791869 0.81342953 0.19754946 0.54709011
-0.048179634 -0.071384296 0.032922417 -0.80767131 0.2865057 0.515347
-0.047551773 0.091050379 0.013284317 -0.95501268 0.062157892 0.28997964
-0.056861851 -0.062935047 -0.019428529 0.95370454 -0.079716645 0.28998935
0.059879974 -0.070906982 -0.026746185 -0.87492973 0.14036076 0.46346283
0.059675589 -0.068966731 -0.030152163 -0.91900313 0.11777502 0.3762489
0.044126034 -0.068720907 -0.049098432 -0.63925052 0.1147254 0.7603932
0.061547142 -0.064278357 -0.024957208 -0.9073624 -0.080336168 0.41260204
0.041828632 -0.066876493 -0.050975356 -0.61660534 -0.12327921 0.77756095
0.038207993 -0.068136975 -0.053567156 -0.56496942 0.11248159 0.81740952
0.059324414 -0.06551975 -0.030137694 -0.86612451 -0.16634235 0.47133783
0.06303449 -0.061970979 -0.019910013 -0.93850183 -0.12926066 0.32016715
0.060160004 -0.062566802 -0.026871266 -0.89593345 -0.10044076 0.43268469
0.062087122 -0.059359487 -0.022125933 -0.93820679 -0.10420674 0.33001503
0.050702956 -0.060871977 -0.041472383 -0.75288719 -0.050098486 0.65624076
0.053571794 -0.061442889 -0.038224626 -0.58943897 -0.012460653 0.80771726
0.05296291 -0.058836307 -0.039454091 -0.57155341 0.029767279 0.82002527
-0.015261961 -0.068266012 0.056448035 -0.32756186 0.2936545 0.89803749
-0.020311359 -0.069814093 0.054883718 -0.3189007 0.16585757 0.93316376
-0.052652519 -0.072498858 0.026414853 -0.8123641 0.41528183 0.40939781
-0.041745253 0.026972925 0.032246225 -0.80285925 0.07071168 0.59196085
-0.050219458 -0.071598537 0.030069234 -0.82415962 0.35254627 0.44325274
0.061151445 -0.054173805 0.015027232 0.94246024 0.0035981575 0.33430031
-0.050372146 -0.068637982 0.026885359 -0.84629941 0.33750007 0.41215506
-0.018006817 -0.061516631 0.054949231 -0.36526379 -0.020429738 0.93068039
-0.038517859 -0.067910403 0.04239779 -0.68075663 0.21789058 0.69935334
-0.05502703 -0.072069816 0.020971349 -0.83099931 0.43053922 0.35224566
-0.055380326 -0.067344435 0.013088522 -0.97624713 0.0543628 0.20973133
-0.053790424 -0.068453133 0.018956752 -0.8971988 0.24092902 0.3701196
-0.05222613 -0.067828171 0.022482298 -0.88715738 0.22769746 0.40138084
-0.05484261 -0.068942964 0.017039545 -0.93552852 0.19409232 0.2951535
-0.04816344 -0.066456832 0.030208385 -0.84931695 0.18209393 0.49548289
-0.024059059 -0.057384733 0.052518848 -0.45475346 -0.020976504 0.89037097
-0.054451726 -0.06363187 0.016311454 -0.95452654 0.082278326 0.28654894
-0.050433867 -0.066427678 0.0258935 -0.88310927 0.044869412 0.46701801
-0.049014498 -0.062816747 0.028475229 -0.85807317 0.010934877 0.51341188
-0.050508291 -0.061591394 0.025949191 -0.89747411 -0.0038002175 0.44105202
-0.045612205 -0.057636499 0.034092013 -0.83398712 0.013465652 0.55162042
-0.053394791 -0.060686819 0.019651439 -0.93597025 -0.038059771 0.35001755
-0.049189296 -0.058411349 0.027987741 -0.85874718 -0.0052655973 0.51237321
-0.052105442 -0.059009254 0.022916516 -0.90006918 -0.027224824 0.43489689
-0.053617384 -0.057974491 0.019012848 -0.95523888 -0.041190814 0.29295558
-0.050554428 -0.053760622 0.026251486 -0.87222731 -0.0076733041 0.48904133
-0.053433795 -0.053898104 0.020122191 -0.9310267 0.011860653 0.36475986
-0.044910435 -0.050895959 0.035087142 -0.8032704 -0.007516061 0.5955677
-0.054331098 -0.051219217 0.016941223 -0.96216595 0.016881892 0.27194238
-0.055614132 -0.051620897 0.011681636 -0.97650653 0.012712235 0.21511449
-0.050616689 -0.049842428 0.025607005 -0.89244795 0.022798728 0.45057523
-0.052690119 -0.049650121 0.021213254 -0.92263728 0.027009131 0.38472325
-0.041099079 -0.04540344 0.0393578 -0.72979909 0.0074936696 0.68362129
-0.047729425 -0.049026247 0.030867577 -0.84680831 0.0031196459 0.53188986
-0.046339475 -0.044336673 0.032841694 -0.82758021 0.018244132 0.56105167
-0.052508473 -0.045463976 0.021601662 -0.9216938 0.0065010358 0.3878653
-0.044228762 -0.046357881 0.03571761 -0.7880767 0.01776908 0.61532122
-0.050829738 -0.043679409 0.025151828 -0.89996618 0.0020245225 0.43595615
-0.056880932 -0.042865735 -0.0010540436 -0.99996388 -0.0021253701 0.0082879085
-0.048976209 -0.043129537 0.028609902 -0.86361295 0.016776411 0.50387716
-0.046012502 -0.041105591 0.033142563 -0.81281447 0.031436365 0.58167446
-0.052910648 -0.037598088 0.020774098 -0.93019879 0.02007225 0.36650836
-0.047667719 -0.038117338 0.030458894 -0.84161657 0.010435941 0.5399754
-0.053332087 -0.040408932 0.019542759 -0.93732226 0.00089087029 0.34846389
-0.055387598 -0.039512899 0.012591038 -0.97099686 0.016127218 0.23854984
-0.051223185 -0.038099684 0.024422271 -0.88929558 0.017110756 0.45701379
-0.052892588 -0.033126313 0.020259367 -0.91742069 0.034146022 0.39645216
-0.046245631 -0.033658758 0.032842159 -0.82085234 0.029492412 0.57037932
-0.05527623 -0.034207333 0.011866505 -0.97634763 0.020129515 0.21526965
-0.048697077 -0.035247266 0.028748125 -0.86345291 0.034447055 0.5032528
-0.040482491 -0.028074633 0.039362878 -0.71618122 0.0086925309 0.69786096
-0.050492872 -0.032037403 0.025375567 -0.88596779 0.036277372 0.46232685
-0.054131612 -0.031545989 0.017177591 -0.95683843 0.046082769 0.28694504
-0.054874774 -0.028008139 0.013301745 -0.96820432 0.096812777 0.23066995
-0.04243296 -0.026102442 0.037216693 -0.77421492 -0.034972388 0.63195664
-0.054318681 -0.026289234 0.014490639 -0.9411661 0.1717183 0.29106703
-0.048704706 -0.025589067 0.026502306 -0.93258303 -0.080505572 0.35186464
0.058886591 -0.00046041279 0.010303585 0.97862035 0.05429462 0.19838187
-0.052788217 -0.025112433 0.017573662 -0.9581601 0.12256427 0.25866652
-0.014478712 -0.014683073 0.053921208 -0.31070137 0.072567299 0.94773394
-0.021412907 -0.018577188 0.051479511 -0.36379641 0.28687093 0.88620436
0.052906916 -0.055422779 0.032296438 0.85190916 -0.074108601 0.51842028
-0.01905226 -0.015232759 0.05216324 -0.37801108 0.063543208 0.92361838
-0.01545957 -0.011084274 0.053443611 -0.31908187 0.047516074 0.94653577
-0.035515312 -0.017529298 0.042089161 -0.65807194 0.096337073 0.74676734
-0.049197014 -0.020053342 0.024532085 -0.89871615 0.13828741 0.41615731
-0.038674563 -0.019914068 0.039760914 -0.70888638 0.12089576 0.69488508
-0.044202216 -0.019116061 0.033039358 -0.8016203 0.16228153 0.57538724
-0.016856251 -0.009870558 0.05276354 -0.34986082 0.063891254 0.93462098
-0.052140072 -0.019738527 0.018565023 -0.90941197 0.14269723 0.39065129
-0.020766152 -0.012008617 0.051486857 -0.41065466 0.062471732 0.9096489
-0.050347298 -0.016592115 0.021589158 -0.91157568 0.081675164 0.40293923
-0.043518774 -0.013721207 0.032776512 -0.82721937 0.064781919 0.55813295
-0.019693555 -0.0080939243 0.051440123 -0.39795795 0.05761376 0.91559327
-0.051812708 -0.014127305 0.017141808 -0.94411391 0.048455287 0.32603976
-0.021709152 -0.0054917913 0.050619535 -0.43577641 0.031287111 0.89951158
-0.049112447 -0.013665754 0.023735629 -0.90014291 0.050044037 0.4327116
-0.01643122 -0.0052452446 0.052679792 -0.33672193 0.029351082 0.94114715
-0.047635216 -0.010207114 0.026365485 -0.86645967 0.042249482 0.49745688
-0.050117623 -0.010847447 0.021028612 -0.91960919 0.029772365 0.39170596
-0.051499903 -0.0082640294 0.017337775 -0.94536316 0.039469387 0.32362267
-0.043501686 -0.0055742762 0.032307923 -0.81909835 0.053746544 0.57113039
-0.048354581 -0.0074431151 0.024805458 -0.88887095 0.031346824 0.45708522
-0.050241623 -0.0064937258 0.020568041 -0.92778957 0.036004893 0.371364
-0.048331961 -0.0032120787 0.024367038 -0.89874244 0.057225734 0.43472782
-0.045264862 -0.003250096 0.029696543 -0.82030797 0.035476655 0.57082146
-0.050854493 -0.0010954266 0.018474234 -0.94085073 0.048204277 0.3353762
-0.043232031 -0.06219304 0.037335705 -0.77590823 0.0032957988 0.63083798
-0.05073341 0.0034523665 0.017969107 -0.94097215 0.054859243 0.33401018
-0.052597929 0.0010009496 0.011765523 -0.97065055 0.054021031 0.23435058
-0.046254314 0.0026056033 0.027381312 -0.87259656 0.05800008 0.48498669
-0.039267335 0.0037128814 0.036972221 -0.74962932 0.037501018 0.66079527
-0.052084506 0.0042747064 0.013242204 -0.96489453 0.051807035 0.25747919
-0.044427447 0.0039299941 0.030310314 -0.82570207 0.059853658 0.56092286
0.052709043 -0.044126295 0.032656062 0.83460879 0.041349377 0.54928982
-0.051457781 0.0086757215 0.014580339 -0.96020836 0.066218339 0.27132294
-0.049278166 0.010571259 0.021027762 -0.92440522 0.040667076 0.37923905
-0.047714487 0.013558011 0.023844978 -0.89057988 0.049328923 0.45214501
-0.045545857 0.016500913 0.027423918 -0.85160911 0.043794326 0.52234548
-0.041524373 0.022794314 0.03304578 -0.78444368 0.041709177 0.61879671
-0.048950203 0.075409107 0.010631613 -0.96882921 0.045786615 0.24346332
-0.04851193 0.023029625 0.020801716 -0.92876613 0.055500228 0.3664892
-0.04981976 0.02725721 0.017078102 -0.94832897 0.038117293 0.31499234
-0.047454968 0.027330853 0.022791449 -0.89597017 0.049456771 0.44135311
-0.04869134 0.030919643 0.01963236 -0.92202216 0.05258229 0.38355079
-0.049946435 0.045439277 0.01316341 -0.96607864 0.061427843 0.25083762
-0.050318986 0.060067475 0.0084309261 -0.98050654 0.055734232 0.18841843
-0.048187952 0.061866555 0.016332427 -0.95376849 0.051385727 0.29611844
-0.049361691 0.064148337 0.012057337 -0.96543908 0.069274403 0.25125575
-0.04950925 0.069609463 0.0090384269 -0.9737097 0.063470781 0.21877359
-0.039346576 0.072489001 0.031597376 -0.80866534 0.039592836 0.58693582
-0.014705968 -0.07190188 0.05846243 -0.24356407 0.35399604 0.90297532
-0.043702144 -0.036733232 0.036006752 -0.78280795 0.019109525 0.62197065
-0.046612069 -0.0022743479 0.027543496 -0.86344457 0.05405442 0.50154012
0.058905907 -0.072089702 0.046259388 -0.96816444 -0.24872664 -0.028172594
0.058049947 -0.072518878 0.043473888 -0.86381137 0.13880208 0.48431888
0.0558994 -0.072347835 0.040971089 -0.81393015 0.37787601 0.44128036
0.054935213 -0.071074553 0.037257664 -0.8810181 0.27959317 0.38162276
0.054558106 -0.071556486 0.034731492 -0.96387297 0.19899614 -0.17706075
0.057078049 -0.069386594 0.039751478 -0.91476619 0.0042313477 0.40396279
0.054362468 -0.072623238 0.031541724 -0.77147716 0.43487084 -0.46444717
0.056438003 -0.066710755 0.052517302 -0.90387362 -0.36685869 -0.22006412
0.054354507 -0.065082453 0.036807768 -0.94324183 -0.2809844 0.17704117
0.053572197 -0.063842051 0.03406857 -0.91635698 -0.16074854 -0.36667541
0.017053179 0.048730344 -0.053471975 0.24564961 0.056600574 -0.96770531
-0.036965128 -0.063813359 -0.041935097 -0.70797789 -0.2924585 -0.6428346
0.019570418 0.044652987 -0.052955091 0.29868191 0.064839132 -0.95214808
-0.039374266 -0.058944844 -0.042472608 -0.57867289 -0.49169862 -0.65066975
-0.043412238 -0.056888379 -0.039594214 -0.74319971 -0.17166299 -0.64667386
-0.050204761 0.076758437 -0.0046587861 -0.99825579 0.016980322 -0.056550201
-0.047699258 -0.056919273 -0.080560349 -0.92665982 -0.36349231 0.095791191
-0.037306085 -0.050333083 -0.045002528 -0.65488553 0.046338059 -0.75430679
-0.047920387 -0.056854188 -0.079024807 -0.61393756 -0.5719499 -0.54401743
-0.036356289 -0.046687633 -0.04560319 -0.67005515 -0.058127724 -0.74003255
-0.039804943 -0.049795683 -0.04280002 -0.68163133 0.02231002 -0.73135632
-0.038167808 -0.044543069 -0.044219155 -0.67428547 -0.008459718 -0.73842305
-0.049417663 0.075637124 -0.011886906 -0.97687769 0.038958121 -0.21022181
-0.037418772 -0.042193361 -0.044984147 -0.66797185 -0.0090574827 -0.7441321
0.037807435 0.0062751649 0.043472238 0.62690061 0.055856112 0.77709508
-0.039310019 -0.03800289 -0.043383218 -0.68244451 0.013294321 -0.73081726
-0.058567949 -0.030753551 -0.073189862 -0.88992214 -0.082826547 0.44853038
-0.035033029 -0.019132029 -0.0448322 -0.69086248 0.014377613 -0.72284389
-0.058997884 -0.027424788 -0.073154554 -0.9983868 0.050546579 0.025882291
-0.03780498 -0.012774598 -0.041744795 -0.71744388 0.03339329 -0.69581622
-0.049069975 0.083279826 -0.010430005 -0.9856562 0.066401452 -0.15515697
-0.058342107 -0.022473011 -0.072614744 -0.95973605 0.078280143 -0.26977757
-0.03372458 -0.0068016108 -0.044945613 -0.62997776 0.039785925 -0.775594
-0.057606388 -0.017819591 -0.074880183 -0.87361556 -0.04576885 -0.48446035
-0.058597744 -0.016657684 -0.072715104 -0.98004103 0.034499153 -0.19578134
-0.032147236 -0.001124782 -0.04583082 -0.61946011 0.049044602 -0.78349513
-0.05786068 -0.0088557219 -0.072176568 -0.9995802 -0.016023641 0.024160085
-0.049118791 0.079400554 -0.011067107 -0.98564148 0.057816926 -0.15864749
-0.026446376 -0.068329573 -0.056697901 0.42308462 0.1811858 0.88779062
0.013669195 -0.062917478 0.057904877 0.15822269 0.057751358 0.9857136
0.022056449 0.049351271 -0.052003786 0.35854197 0.05062665 -0.93214035
-0.049751703 0.086029299 -0.00109962 -0.99643534 0.08414799 -0.0060498049
-0.049458772 0.085149176 -0.0063396329 -0.99273133 0.062086992 -0.10310524
-0.04941259 0.088732786 -0.0027762037 -0.99931532 0.036741186 0.0044570169
0.058900394 -0.070417576 -0.029680105 -0.78566337 0.52583367 0.32593369
0.065844208 -0.067839213 0.0031166603 -0.9549253 0.29329184 -0.045810368
0.065046765 -0.068099931 0.011199025 -0.97770274 -0.054293208 -0.20285635
0.065270469 -0.062002752 0.0057501239 -0.99428552 -0.057596643 -0.089888178
0.066258095 -0.065483034 0.0027328539 -0.99672848 -0.022400303 -0.077663369
0.066198796 -0.067146279 -0.0047447076 -0.99842978 -0.044267036 0.034342978
0.065442622 -0.060304552 0.0010221023 -0.99309641 -0.094504893 -0.06949424
0.0651135 -0.064045161 0.0093346965 -0.98936325 -0.0425536 -0.13910639
0.065648779 -0.059119165 0.002995406 -0.99815476 0.060370728 0.006582675
0.066158183 -0.056492575 -0.003619486 -0.99708056 -0.024224572 0.07241898
0.065723382 -0.056502987 -0.00026212112 -0.99688804 0.0031070008 -0.078775227
-0.049223535 0.090792201 -0.00011472234 -0.99961418 0.021109693 0.018080939
-0.049908642 0.075409569 -0.0074449913 -0.99348807 0.055795729 -0.099344075
-0.05614974 -0.067017205 0.0095917908 -0.97009516 -0.051733013 0.23714989
-0.045557085 -0.062883958 0.033934139 -0.8356393 0.0016476832 0.54927695
0.0037216924 -0.06666185 -0.064327918 0.080200396 -0.11801372 0.98976845
0.0020070076 -0.063413098 0.058695316 0.0025419469 0.0088827321 0.99995774
-0.038281787 -0.063458212 -0.039190542 -0.21099094 -0.26418963 -0.94110978
-0.056577682 -0.069966845 -0.01199346 -0.99511975 -0.01123325 -0.098037884
-0.05584478 -0.058161024 -0.013705836 -0.98083687 -0.0090500228 -0.19462283
-0.056803025 -0.063122489 -0.0080191465 -0.9969629 0.008559457 -0.077412255
-0.056924596 -0.057830229 -0.0071002729 -0.99792206 -0.018352889 -0.061771706
-0.056965545 -0.054935474 -0.0011019402 -0.9996469 -0.014802516 0.022089463
-0.055654261 -0.054089863 -0.015140749 -0.97278506 0.0023503103 -0.23169972
-0.056893218 -0.049945664 0.0027326257 -0.99859399 0.0068861912 0.052569441
-0.056942187 -0.048629373 -0.0026436958 -0.99950379 0.031445079 0.0020680698
-0.054018959 -0.046875965 0.017730441 -0.9509179 0.01027356 0.30927417
-0.056884021 -0.045463491 0.0036966342 -0.99852782 0.0073438035 0.053751394
-0.056701452 -0.046563782 -0.00091604603 -0.99996996 0.0072232136 0.0029772825
-0.055721138 -0.048728067 -0.014032655 -0.97909957 0.0067718243 -0.20327094
-0.055232398 -0.044958238 -0.016316121 -0.96343625 0.022314951 -0.26700875
-0.056321148 -0.046512499 0.0084606819 -0.98544472 -0.0073468201 0.16983996
-0.056293715 -0.040182792 0.0080333585 -0.98932898 0.021369243 0.14412668
-0.056382459 -0.042265531 -0.010860696 -0.9877522 0.0090798084 -0.15576956
-0.043110792 -0.032186162 0.036568955 -0.76723164 0.03088936 0.64062661
-0.054132104 -0.035817541 0.016914442 -0.96038342 0.011432794 0.27844915
-0.05678666 -0.040975489 0.0022318545 -0.99862427 0.026541689 0.045233242
-0.056422293 -0.039304506 -0.010672542 -0.98452401 0.024058707 -0.1735929
-0.054942194 -0.040092584 -0.016388461 -0.95985949 0.029537212 -0.2789236
-0.053111788 -0.038310289 -0.022048527 -0.9417147 0.010289195 -0.33625689
-0.054709606 -0.034627184 -0.016852582 -0.96147686 0.0096889958 -0.27471682
-0.056508295 -0.029925086 -0.0013983464 -0.99689662 0.078700498 -0.0020641268
-0.056565218 -0.027604114 0.0023630832 -0.99255234 0.12104369 0.013755992
-0.055172496 -0.030195426 -0.015491406 -0.9638437 0.050112691 -0.26171526
-0.020831298 -0.066561744 0.054241851 -0.38584054 0.17280048 0.90623844
-0.017020324 -0.066144459 0.055356175 -0.33431903 0.069660343 0.93988264
-0.0093934285 -0.060408689 0.057652332 -0.14360097 -0.013312831 0.98954666
-0.047501639 -0.017964024 0.027089396 -0.86015731 0.12256612 0.49508363
-0.038948126 -0.012130053 0.038234212 -0.72335136 0.067549057 0.6871689
-0.0522305 -0.017798275 0.016330032 -0.95523053 0.078917347 0.28514495
-0.0055022086 -0.019446207 0.056567557 -0.11496929 0.31243646 0.94295621
-0.053583402 -0.015006089 -0.01293474 -0.96999413 0.12103607 -0.21086147
-0.053616192 -0.0065961103 0.0089428518 -0.98765117 0.041066505 0.15119405
-0.052924614 -0.0098144151 -0.014968124 -0.96758044 0.051234525 -0.24731389
-0.052224666 -0.0041855378 0.014419206 -0.96186703 0.046120919 0.26960266
-0.053869147 -0.0072010765 -0.0092540672 -0.99136263 0.039858121 -0.1249499
-0.053087313 -0.0041866465 -0.013290071 -0.97247231 0.044909354 -0.2286523
-0.053428758 0.0019031834 -0.01031066 -0.98351312 0.050945126 -0.1735151
-0.052654177 0.0081972592 0.0097117051 -0.98229659 0.056439348 0.17863065
-0.05177439 0.015613282 -0.014262682 -0.95718318 0.052693162 -0.28464857
-0.050211806 0.014368114 -0.019418769 -0.94337159 0.047678191 -0.32829538
-0.05283526 0.015587092 -0.0092191352 -0.98937178 0.050980728 -0.13618156
-0.051813424 0.019355737 -0.0138032 -0.97146398 0.048650134 -0.23214631
-0.05272096 0.027455864 0.00016292036 -0.99841279 0.048409518 0.028798265
-0.050962657 0.026681116 -0.015357424 -0.96629655 0.065072015 -0.24907358
-0.052442737 0.027473252 0.0052726502 -0.99322623 0.062416065 0.098014571
-0.051581495 0.027499199 -0.012386989 -0.97933352 0.048738416 -0.19629398
-0.051088698 0.031407818 -0.013715333 -0.96980619 0.051295117 -0.23842321
-0.051635381 0.032496095 0.0092402818 -0.98423254 0.047559965 0.17036822
-0.052367233 0.034465086 0.0031437306 -0.99716318 0.039064884 0.064347491
-0.050222415 0.037300851 0.013848021 -0.96825427 0.051800452 0.24454321
-0.052085351 0.040403582 0.0018295035 -0.99628383 0.063531518 0.058164965
-0.052330106 0.036561858 -0.0020060295 -0.99851286 0.052691653 -0.014026564
-0.051376201 0.048751261 -0.0078358091 -0.99280536 0.057763364 -0.10489011
-0.050376069 0.053439502 -0.01195695 -0.97433913 0.051971465 -0.21900518
-0.050935879 0.060976084 0.0025858504 -0.99592227 0.055161234 0.071394123
-0.050835721 0.064130157 -0.0015483048 -0.99841976 0.048847899 -0.027800551
-0.049929831 0.063567504 -0.010845311 -0.97414464 0.064432785 -0.21654472
0.063162319 -0.069369651 0.018883422 -0.93306035 -0.071961202 -0.35245001
-0.014606155 -0.038570244 0.056253705 -0.28639922 0.01130426 0.95804423
0.065699674 -0.067736506 -0.00085632812 -0.98884773 0.12649889 -0.078607827
-0.017375497 -0.0011459423 0.052365243 -0.35660443 0.037766762 0.93349236
-0.04239073 0.072115943 -0.028981842 -0.85567611 0.046383228 -0.51542974
-0.037130628 -0.062202476 0.043308116 -0.64202368 -0.013846897 0.76656038
-0.039532501 -0.033068918 0.04079077 -0.71172649 0.039095871 0.70136857
-0.055885028 -0.058688488 0.011098185 -0.9756217 -0.031133223 0.21724179
-0.043613397 0.078576498 -0.026173767 -0.87702793 0.040315464 -0.47874597
-0.045894418 -0.072412103 -0.039246976 -0.77583569 0.3051075 -0.55225831
-0.050042193 -0.071926825 -0.033518221 -0.75293767 0.43455556 -0.49421382
-0.046865627 -0.069847658 -0.036465798 -0.79842854 0.2803961 -0.53281391
-0.044817701 -0.065988004 -0.037759226 -0.73887962 0.16065164 -0.65440732
-0.043826614 -0.067370191 -0.039732713 -0.61204916 0.26462257 -0.74523258
-0.05534865 -0.060953546 -0.066604368 -0.035453301 -0.75692725 -0.65253758
-0.050980635 -0.053426873 -0.075477496 -0.77304316 -0.32468507 -0.54496318
-0.041951202 0.079275124 -0.029036995 -0.84191978 0.053820249 -0.5369128
-0.049538098 0.086291395 0.0047279322 -0.99134463 0.062161278 0.11564098
0.060071167 -0.074984588 0.058777571 -0.35222635 -0.89376426 -0.27771035
0.057936382 -0.073168278 0.027610799 -0.71075553 0.33566073 -0.61819047
0.057909679 -0.069147564 0.042257514 -0.92928034 0.22737511 0.29110056
0.05921204 -0.071345039 0.026660031 -0.86424035 0.080449872 -0.49660587
0.06047079 -0.070202924 0.02369458 -0.82867408 0.4106302 -0.38037214
0.060473111 -0.066852473 0.024645953 -0.89742738 0.062764823 -0.43667585
0.06234806 -0.066060945 0.020544715 -0.92447454 0.058233075 -0.37677136
0.061495472 -0.068790235 0.021778105 -0.89615613 0.086778291 -0.43517205
0.058651287 -0.064960018 0.028104849 -0.85999781 0.033900857 -0.50917137
0.065728426 -0.067068957 0.0068563353 -0.99359643 0.079008624 -0.080775216
0.064967781 -0.070651256 0.00051134883 -0.99119359 0.050589547 -0.12238042
0.056763329 -0.061677851 0.030876411 -0.79561406 -0.061073508 -0.60271817
0.053560901 -0.061259575 0.034643941 -0.76933706 0.051799286 -0.63674033
0.051667817 -0.059468847 0.035372537 0.077373393 0.44483361 -0.89226538
0.05662464 -0.059335001 0.030528527 -0.84544414 0.095099285 -0.52552933
-0.0459801 -0.058725599 -0.076540127 -0.70242935 -0.62323833 -0.34375563
-0.048093341 -0.055024516 -0.078046396 -0.60478538 -0.27719742 -0.74659026
-0.048489302 -0.059118293 -0.076259702 -0.40099242 -0.73781383 -0.54298872
-0.055504039 -0.062511675 0.011891103 -0.96756929 0.03309815 0.25042969
-0.056771576 -0.063683778 0.0086830957 -0.98794401 0.064760312 0.14061882
-0.052484158 -0.070303582 -0.026703116 -0.93732399 0.036595609 -0.34653372
-0.053697057 -0.067599334 -0.021701479 -0.95037621 0.086119018 -0.29894739
-0.051021036 -0.070078276 -0.029613353 -0.85114658 0.1934077 -0.48799989
-0.048273701 -0.069094054 -0.033316139 -0.83255655 0.27617776 -0.48018363
-0.047745116 -0.06592273 -0.033676863 -0.84546393 0.077034645 -0.52844793
-0.056830309 -0.058464658 0.0049502752 -0.99529964 -0.01497864 0.095682777
-0.053202353 -0.062604837 -0.021998756 -0.95073861 0.0089708315 -0.3098655
-0.041943911 -0.06333863 -0.039286431 -0.33147585 0.013575114 -0.94336659
-0.054950763 -0.056219019 0.014479993 -0.96458673 -0.021035781 0.26292765
-0.038543168 -0.061475817 -0.040738139 -0.54532003 -0.39395419 -0.73988312
-0.042006496 -0.059564579 -0.039447963 -0.56431162 -0.4220244 -0.70954114
-0.046427149 -0.062352888 -0.035384711 -0.77428609 0.07511986 -0.62836224
-0.052962139 -0.060009032 -0.023316462 -0.93250155 -0.015941205 -0.36081517
-0.042896654 -0.060555488 -0.038713198 -0.63052851 -0.023393294 -0.77581418
-0.051505122 -0.057114199 -0.026391564 -0.90452206 0.014903381 -0.42616752
-0.045851763 -0.059190568 -0.03566036 -0.79577106 -0.050527304 -0.60348678
-0.048847161 -0.05807732 -0.031875633 -0.84847999 -0.00038208521 -0.52922821
-0.045308556 -0.055098157 -0.037159294 -0.82032675 -0.078825183 -0.56643754
-0.042838205 -0.052718814 -0.039796535 -0.74881011 0.046765797 -0.66113347
-0.048641328 -0.052912954 -0.032381508 -0.85804868 0.0053994255 -0.51354074
-0.056627631 -0.048527554 -0.0089123761 -0.9937982 0.0098035634 -0.11077063
-0.051470384 -0.048491448 -0.026525863 -0.91608846 0.008570007 -0.400886
-0.049849801 -0.050703172 -0.02993363 -0.88593328 0.017008156 -0.46350199
-0.048395161 -0.04870557 -0.032081649 -0.84758031 0.011144764 -0.53055102
-0.042108636 -0.048400063 -0.040366277 -0.72836298 0.0022547611 -0.68518853
-0.053370256 -0.044444367 -0.021793647 -0.93886715 0.025479317 -0.34333697
-0.046050057 -0.048212003 -0.035790492 -0.79023576 0.0022839454 -0.61279929
-0.046453774 -0.043506283 -0.035171401 -0.80918628 0.0014256251 -0.58755118
-0.051083926 -0.04324102 -0.027294654 -0.90687406 0.014122274 -0.42116627
-0.042167261 -0.044486847 -0.040560979 -0.74226403 0.0029813319 -0.6701017
-0.052027278 -0.058148131 -0.073048502 -0.77766466 -0.41564956 -0.47167161
-0.055096064 -0.054667402 -0.073301174 -0.71416825 -0.41799849 -0.56146401
-0.056280371 -0.03479822 0.0072311354 -0.98956388 0.0092105949 0.14380366
-0.043786783 -0.041286789 -0.038457364 -0.76156992 0.016993241 -0.64786065
-0.054173037 -0.054898784 -0.071406335 -0.82399279 -0.38721442 -0.41364449
-0.049384248 -0.042088829 -0.030844426 -0.86430824 9.3939518e-05 -0.5029633
-0.047145367 -0.039348517 -0.034205914 -0.822357 0.020661397 -0.5685975
-0.055838544 -0.050867472 -0.074063264 -0.88246405 -0.10641351 -0.45818609
-0.04242881 -0.036884729 -0.039937455 -0.74033916 0.018812055 -0.67197096
-0.054668948 -0.051405817 -0.071215436 -0.8984369 -0.35527045 -0.25806007
-0.054187514 -0.04858277 -0.074090436 -0.64416969 0.0078434255 -0.76484305
-0.045034524 -0.035798006 -0.0368778 -0.76976126 0.013102091 -0.6381982
-0.053459734 -0.033296581 -0.021327524 -0.94571549 0.012288793 -0.32476488
-0.049613778 -0.036546983 -0.029873569 -0.87553871 0.025984896 -0.48244965
-0.057278588 -0.048775215 -0.070868477 -0.57610899 -0.17600255 -0.79819947
-0.046066646 -0.033228911 -0.035556979 -0.82461876 0.042197313 -0.56411356
-0.050021823 -0.033063069 -0.029233886 -0.88158584 0.016836014 -0.47172451
-0.043247569 -0.030833479 -0.038766462 -0.75855893 0.054028638 -0.64936149
-0.052139632 -0.031363878 -0.024557602 -0.92324418 0.044411972 -0.38163963
-0.053512335 -0.027855515 -0.020219237 -0.9432199 0.07862024 -0.32273215
-0.051959299 -0.026847444 -0.023640519 -0.90787828 0.22166125 -0.3558431
0.054533094 -0.066808037 0.039112933 -0.7928111 -0.14059769 0.5930292
-0.046349335 -0.028355449 -0.034345303 -0.79708886 0.076436669 -0.59900558
-0.04875166 -0.062367857 -0.03196229 -0.84350866 0.013159381 -0.53695512
-0.054687534 -0.026174529 -0.01510598 -0.95511633 0.087425575 -0.28303793
-0.052092966 -0.024999673 -0.021392846 -0.87827098 0.1707375 -0.44664297
-0.051007744 -0.027094057 -0.026690893 -0.88824761 0.15707998 -0.43167484
-0.048613742 -0.030520765 -0.031393975 -0.84974837 0.065325476 -0.5231263
-0.048049107 -0.025663527 -0.031978644 -0.76686841 0.27357164 -0.58057922
-0.040377799 -0.027412765 -0.041304912 -0.72377336 0.02531993 -0.68957388
-0.058935344 -0.03974485 -0.069916092 -0.66218597 -0.1384674 -0.73643571
-0.047376215 -0.037851866 -0.078713872 -0.7361989 -0.11172609 -0.66747999
0.055286098 -0.058089059 0.032644473 -0.79038548 0.073999487 -0.60812479
-0.047460254 -0.03734456 -0.080523692 -0.99898165 -0.018269524 0.041265924
-0.058069699 -0.034691803 -0.07520698 -0.7664727 -0.20149808 -0.6098516
-0.047493335 -0.032993026 -0.079397991 -0.63821888 -0.073682323 -0.76632142
-0.058258634 -0.034637291 -0.07072074 -0.93611443 -0.01407413 -0.35141543
-0.050095491 -0.03383014 -0.078205407 -0.48015159 -0.017959164 -0.87700224
-0.048003707 -0.030123649 -0.080356501 -0.97406322 -0.22554308 -0.018223453
-0.03952321 -0.018535502 -0.040051728 -0.73495966 0.04704256 -0.67647785
-0.045261879 -0.017263368 -0.03298191 -0.82570779 0.051425539 -0.56174994
-0.050038084 -0.031295199 -0.078932643 -0.52922541 0.055744119 -0.84664863
-0.048194256 -0.029469792 -0.078264005 -0.57281351 -0.0015331196 -0.8196848
-0.037528686 -0.016407985 -0.042156864 -0.72610319 0.015235007 -0.68741781
-0.041274898 -0.015702227 -0.038163994 -0.75677204 0.033324566 -0.65282971
-0.058153674 -0.026805012 -0.071251228 -0.98362333 -0.079136804 -0.16193661
-0.048808981 -0.027384518 -0.07848908 -0.34859595 0.051996812 -0.93583024
-0.049724407 -0.011200303 -0.024250511 -0.9136849 0.063415766 -0.40144673
-0.046659868 -0.01188228 -0.0304044 -0.84281456 0.051676359 -0.5357182
-0.042214636 -0.012944466 -0.036951918 -0.79086816 0.038285423 -0.61078858
-0.048032515 -0.015239486 -0.028231312 -0.87909812 0.072798081 -0.47105002
-0.059000656 -0.032958079 -0.073748298 -0.96389806 -0.069237128 0.2571142
-0.057871401 -0.0085360203 -0.074868299 -0.54199862 -0.04140079 -0.83935946
-0.044498339 -0.0078449706 -0.033292841 -0.82449836 0.048454653 -0.5637868
-0.051597998 -0.0059858677 -0.018494623 -0.95005482 0.046439491 -0.30860978
-0.042576928 -0.0091711935 -0.036132913 -0.78108668 0.061575845 -0.62137973
-0.036201898 -0.0032050973 -0.042754035 -0.66374576 0.049754713 -0.74630225
-0.050457705 -0.006594847 -0.021885876 -0.92670542 0.047199644 -0.37281391
-0.057771321 -0.018904345 -0.071319774 -0.97166145 -0.042477313 -0.23253122
-0.047005244 -0.017174536 -0.07938873 -0.47832987 -0.21770997 -0.8507666
-0.047664173 -0.0076229102 -0.028022911 -0.88250947 0.051060744 -0.46751562
-0.049053267 -0.019168988 -0.078155011 -0.36446652 -0.23778516 -0.90034628
-0.049112443 -0.0029990925 -0.024641551 -0.91448069 0.042503607 -0.40239242
-0.045086637 -0.0019564156 -0.031948265 -0.84141171 0.036232851 -0.53917938
-0.042526439 -0.002480543 -0.035663642 -0.7985124 0.021181829 -0.60160631
-0.051324107 -0.017111955 -0.07629437 -0.47042003 0.12456881 -0.87360662
-0.049234137 -0.017169897 -0.078615956 -0.57753736 0.11387236 -0.80838388
-0.039600119 -0.0032238334 -0.039275147 -0.74768984 0.047926262 -0.66231716
-0.050798524 -0.012179436 -0.075989328 -0.55371183 -0.022169976 -0.83241367
-0.048540011 -0.012771534 -0.078382902 -0.58058935 -0.053689029 -0.8124249
-0.0472087 -0.014626284 -0.078832924 -0.55864084 0.12348527 -0.82016629
-0.049915068 0.0017162511 -0.02232369 -0.92138451 0.042778756 -0.38629192
-0.041598801 0.0011149669 -0.036825933 -0.78325325 0.045864969 -0.62000936
-0.038333029 0.0036818944 -0.040082209 -0.7111612 0.057811894 -0.70064861
-0.057362117 -0.012701414 -0.070039377 -0.49011895 0.19891495 -0.84865612
-0.057717126 -0.031590786 -0.071646914 -0.9465825 0.14175645 -0.28963375
-0.052482989 0.0059375479 -0.013770086 -0.97221458 0.045993969 -0.22953038
-0.047419634 -0.0095804883 -0.07857576 -0.48531529 0.079256788 -0.87074006
-0.046089269 0.0038273281 -0.029978484 -0.86616433 0.044557281 -0.49776998
-0.050367549 -0.009357566 -0.076923676 -0.50455981 -0.0025175391 -0.86337358
-0.040665258 0.0089940028 -0.037059795 -0.77179283 0.061208878 -0.63292211
-0.060684815 -0.0088104699 -0.068592049 -0.60457951 0.09896367 -0.79037368
-0.048254717 -0.005225047 -0.077650703 -0.4800553 -0.064702153 -0.87484938
-0.051301412 0.0096971523 -0.017312886 -0.9537338 0.051128943 -0.29627454
-0.046786573 -0.005742657 -0.078951292 -0.66530347 -0.011384985 -0.74648684
-0.047395002 -0.0032111078 -0.078694858 -0.37463132 -0.041197903 -0.92625862
-0.050429177 -0.0057315631 -0.076633982 -0.49029806 0.055106353 -0.86981148
-0.057105888 -0.0029224579 -0.071157664 -0.99072558 0.027369514 -0.13309622
-0.047372352 -0.00012119234 -0.077999718 -0.51232272 0.14775147 -0.84598809
-0.041661825 0.013323573 -0.035475336 -0.77794772 0.054442629 -0.62596685
-0.050482795 -0.00024690593 -0.075299762 -0.49625349 0.029665889 -0.86767113
-0.049953926 -0.0039273663 -0.078010507 -0.66217387 0.11663891 -0.74021763
-0.048179779 0.015054152 -0.024544943 -0.90832722 0.047013924 -0.41561094
-0.040087599 0.016928434 -0.037087139 -0.77126831 0.039104536 -0.63530862
-0.049117416 0.0019409243 -0.077535488 -0.5993132 -0.019518716 -0.80027717
-0.047121182 0.003685056 -0.077913113 -0.48757812 0.17771378 -0.85480195
-0.03768209 0.019315874 -0.039686091 -0.73034185 0.052453682 -0.68106562
-0.04158685 0.02050118 -0.035030272 -0.7949934 0.050857332 -0.60448313
-0.046291593 0.017694354 -0.028051894 -0.87856001 0.053671241 -0.474608
-0.05066976 0.022475133 -0.017226215 -0.94504744 0.052391227 -0.32270971
-0.056836724 0.0074991882 -0.070853375 -0.74299848 0.18980198 -0.64181745
-0.057275515 0.003553753 -0.072766736 -0.98749745 0.025829686 -0.15550752
-0.04977211 0.0058643059 -0.075921029 -0.42226556 -0.070123471 -0.90375632
-0.049226351 0.010581216 -0.076857768 -0.46217847 0.029948378 -0.88628167
-0.048407733 0.025131293 -0.022828091 -0.91680449 0.050070103 -0.3961862
-0.04751816 0.036124405 -0.023332486 -0.89570135 0.048538551 -0.44200036
-0.044910904 0.034902666 -0.028664757 -0.87746274 0.06394583 -0.47536418
-0.04898537 0.034061834 -0.020148179 -0.93522847 0.049829502 -0.35052213
-0.056314625 -0.059243515 -0.070264332 0.3398377 -0.65307933 -0.6767562
-0.048926443 0.039141934 -0.019881729 -0.94085902 0.044030599 -0.33592665
-0.056837093 -0.055788387 -0.072056048 0.81213415 0.025018437 -0.5829348
-0.051196866 0.05694633 0.0031192529 -0.99674362 0.061442327 0.052228689
-0.036560778 0.051935479 -0.038373362 -0.75221372 0.061287872 -0.6560635
-0.034053903 0.062859893 -0.040009454 -0.68972075 0.052927196 -0.72213912
-0.053544007 0.00083435798 0.0072262525 -0.99355954 0.04792843 0.10268077
-0.044905633 -0.051819425 -0.037344255 -0.80168313 0.04853759 -0.59577608
-0.057751849 -0.014086857 -0.071959063 -0.97555107 0.16212541 -0.14837931
-0.057538219 -0.0061138952 -0.071941778 -0.99053544 0.13693303 -0.0094841868
-0.051515482 -0.036303245 -0.025959557 -0.91546732 0.0041215685 -0.40237254
-0.057123538 -0.052778248 -0.06942714 -0.17494127 0.0094865244 -0.98453367
-0.058473203 -0.051397108 -0.071712174 0.33232155 0.37486771 0.86546957
-0.010918842 0.074339025 -0.052215721 -0.23248285 0.042512547 -0.9716714
-0.05548973 -0.056026712 -0.070037343 0.22605312 -0.29799041 -0.92741722
-0.021821933 -0.063261114 -0.055804528 -0.43040189 0.15208139 -0.88973397
-0.056856316 -0.05120248 -0.073600873 -0.31719619 0.26218131 -0.91139925
-0.063322559 -0.014416833 -0.065818667 -0.81426692 -0.116755 -0.56862867
-0.010870865 0.07756041 -0.051964212 -0.26796076 0.060227484 -0.961546
0.052649237 -0.062964574 0.056051951 -0.57951772 -0.59190804 -0.56018299
0.056377437 -0.065496929 0.031933974 -0.81549716 -0.026563631 -0.57815188
0.055660129 -0.060829706 -0.038315605 -0.49865139 -0.0041650948 0.8667931
-0.052041948 -0.064980999 -0.025615951 -0.92988855 0.069289766 -0.36125779
-0.051023547 -0.066787899 -0.028032307 -0.86848557 0.095599122 -0.48640969
-0.050998818 -0.062712453 -0.027950164 -0.90245676 0.015611123 -0.43049872
-0.0073855799 -0.068062074 -0.061262455 -0.11843733 0.26818398 -0.95606017
-0.049949411 -0.06012949 -0.030014263 -0.88765019 0.022507705 -0.45996898
-0.01780933 -0.065450624 -0.057702165 -0.34403169 0.076630503 -0.93582642
-0.054356843 -0.053308707 -0.019417638 -0.95168275 0.022181051 -0.30628243
-0.053920783 -0.055373583 -0.021234667 -0.9331091 0.0017589737 -0.35959047
-0.019211922 -0.061349265 -0.056973826 -0.37204924 -0.012263617 -0.92813253
-0.021746594 -0.058999319 -0.056018658 -0.45004246 -0.0048172935 -0.89299482
-0.054533456 -0.049851272 -0.018609347 -0.95415586 0.011975531 -0.29907221
-0.05539079 -0.0051003322 -0.074640878 -0.12291504 -0.010249645 -0.9923647
-0.015357463 -0.059674352 -0.05842882 -0.3162677 -0.017323431 -0.94851232
-0.020036153 -0.055042408 -0.056971144 -0.39799631 -0.00022448825 -0.91738749
-0.013352676 -0.054630119 -0.059292462 -0.30318636 -0.0060004164 -0.95291287
-0.016911054 -0.052019183 -0.057939727 -0.32557559 0.025177527 -0.94518131
-0.057619713 -0.058909766 -0.068458632 -0.59444124 -0.69972301 -0.3962681
-0.024906313 -0.050860021 -0.054233313 -0.48914391 -0.0052991305 -0.8721875
-0.011106416 -0.052184746 -0.059865065 -0.25072867 0.012778788 -0.96797359
-0.019638579 -0.048286136 -0.056874748 -0.38744724 0.0070634265 -0.9218654
-0.013755191 -0.046943109 -0.058994737 -0.28163221 0.022637337 -0.95925587
-0.060657725 -0.055263802 -0.066838585 -0.8613323 -0.20440197 -0.46511003
-0.048728872 -0.057812385 -0.078459442 -0.32588089 -0.53833121 -0.77717572
-0.022565456 -0.043416925 -0.055575032 -0.47912908 0.0086992439 -0.87770194
-0.057908621 -0.056935098 -0.071165398 -0.7692191 -0.38250303 -0.51185387
-0.019538667 -0.043757152 -0.057015918 -0.36384186 -0.0027038674 -0.93145734
-0.05952071 -0.052708361 -0.069891348 -0.76635551 -0.096984133 -0.63505453
-0.062828742 -0.05363822 -0.064534791 -0.69262362 -0.032201551 -0.72058076
-0.051402416 -0.054157238 -0.078565441 -0.74613881 -0.43412811 -0.5047875
-0.015638091 -0.043326773 -0.058224823 -0.29662699 0.0014757911 -0.95499289
-0.063011408 -0.049225401 -0.064846076 -0.79470885 -0.232198 -0.56082332
-0.058705952 -0.053336103 -0.07171648 0.060235322 0.55572981 -0.82917851
-0.057431493 -0.053369403 -0.072642095 -0.433285 -0.29362363 -0.85208583
-0.055958819 -0.052658539 -0.07295014 0.7520507 0.08931677 0.65302622
-0.060987152 -0.050905075 -0.066427074 -0.83921891 -0.15157519 -0.52224272
-0.054900434 -0.051081497 -0.073032901 0 0 0
-0.012786089 -0.037212405 -0.059056684 -0.25175098 0.023090562 -0.96751708
-0.016640594 -0.037629418 -0.058041539 -0.32358065 0.017185923 -0.94604504
-0.060530532 -0.049456183 -0.069202587 -0.7203263 -0.055688377 -0.69139707
-0.052806545 -0.05056585 -0.075998701 -0.6774686 -0.20257819 -0.70710635
-0.02186827 -0.037779022 -0.055892274 -0.44904125 0.022322934 -0.89323276
-0.062071826 -0.046024058 -0.067570619 -0.72353691 0.0033005213 -0.69027853
-0.010386323 -0.031902034 -0.059541371 -0.22679082 0.031858034 -0.97342277
-0.026259247 -0.034051184 -0.053431172 -0.50399822 0.013835699 -0.86359435
-0.052433871 -0.044712976 -0.075685769 -0.55192637 -0.14816603 -0.82062471
-0.01817284 -0.033552825 -0.057285082 -0.34589991 0.026374498 -0.9379012
0.047206488 0.095450111 0.026538085 0.78930622 0.07617826 0.60925657
-0.0618909 -0.043191779 -0.068686493 -0.55247009 0.30737153 -0.77479053
-0.050838679 -0.043035641 -0.077704102 -0.41905832 0.18260185 -0.88940871
-0.022858826 -0.030624541 -0.05528675 -0.43509844 0.026100885 -0.90000504
-0.052378811 -0.052813407 -0.024502642 -0.91689259 0.0079019275 -0.39905715
-0.064152777 -0.038328666 -0.065538518 -0.74796635 0.016491089 -0.66353256
-0.06183026 -0.040106416 -0.068665855 -0.58760738 0.052784398 -0.80742317
-0.025836555 -0.026708078 -0.053381633 -0.4936094 0.016114544 -0.86953485
-0.058386054 -0.038324103 -0.07209792 -0.97291028 -0.019504767 -0.23036081
-0.054800097 -0.039197356 -0.07579691 -0.35992804 -0.041594297 -0.93205291
-0.021716315 -0.019827498 -0.053935569 -0.42750937 0.08079493 -0.90039384
-0.06388963 -0.031576525 -0.066359848 -0.76506656 0.077450067 -0.63927746
-0.063660704 -0.034886111 -0.066606134 -0.72417611 -0.10704466 -0.68125725
-0.061567474 -0.032689821 -0.069273815 -0.70550567 0.01305612 -0.70858467
-0.055163812 -0.035404406 -0.075361416 -0.26586074 -0.11315741 -0.95734763
-0.052560132 -0.034793753 -0.07662797 -0.43618688 -0.1412268 -0.88870525
-0.053874549 -0.031838618 -0.076333083 -0.21082276 0.00022278118 -0.9775247
-0.051860556 -0.029941224 -0.075915925 -0.53894877 0.071354046 -0.83931136
-0.063622907 -0.028832357 -0.065917939 -0.82630199 0.015994349 -0.56300104
-0.060725972 -0.02360712 -0.068764701 -0.42617384 0.1687949 -0.88875484
-0.026504595 -0.013882972 -0.050871342 -0.52676207 0.062423281 -0.847718
-0.051270694 -0.027095353 -0.076893382 -0.53095341 0.076037951 -0.84398323
-0.063318595 -0.023004023 -0.066765741 -0.68963361 0.12081347 -0.71401018
-0.064047694 -0.024954893 -0.065784432 -0.82439017 -0.039095555 -0.56467098
-0.055408292 -0.024577197 -0.075206377 -0.18065469 0.089187272 -0.97949499
-0.052597441 -0.020730074 -0.075817578 -0.27116629 -0.078309044 -0.95934218
