# .PCD v0.7 - Point Cloud Data file format
VERSION 0.7
FIELDS x y z normal_x normal_y normal_z
SIZE 4 4 4 4 4 4
TYPE F F F F F F
COUNT 1 1 1 1 1 1
WIDTH 668
HEIGHT 1
VIEWPOINT 0 0 0 1 0 0 0
POINTS 668
DATA ascii
0.058798071 -0.037395258 -0.027772747 -0.39278015 0.076024584 -0.91648513
0.055054709 -0.039838076 -0.024570173 -0.15189405 -0.0068441122 -0.98837358
0.061947502 -0.038984712 -0.0247468 0.37932456 -0.38394755 -0.84184206
0.05684188 -0.039137714 -0.027116871 -0.688546 0.65938401 -0.30185786
0.060444321 -0.045723464 -0.021625828 0.047451451 -0.47573677 -0.87830746
0.073152855 -0.04405066 -0.01862406 0.38141102 -0.18527241 -0.90564942
0.064997733 -0.042899333 -0.022037402 0.27460715 -0.34106225 -0.89903748
0.074036881 -0.048030928 -0.017561391 0.35296753 -0.16015311 -0.92182744
0.062814631 -0.045661356 -0.021834586 0.13880199 -0.35833812 -0.92321658
0.06867779 -0.046360888 -0.01993994 0.30021682 -0.23978135 -0.92324197
0.069729358 -0.049010817 -0.019009853 0.15714319 -0.42180806 -0.89296418
0.06368646 -0.047780305 -0.02034004 0.10827472 -0.47554052 -0.87300557
0.073313147 -0.051451828 -0.016985206 0.19832993 -0.41632009 -0.88732398
0.067049973 -0.021351082 -0.0093076099 0.71394455 0.69865692 -0.04650506
0.07222601 -0.025626946 -0.0076605268 0.64884609 0.74217671 -0.1678496
0.057593763 0.0283824 -0.091796786 0.97990376 -0.19182345 -0.054712009
0.0773049 -0.029470526 -0.0048635164 0.65979326 0.72730106 -0.18896325
0.081329316 -0.031871047 0.00057644781 0.61170143 0.78203201 -0.11936589
0.023045218 0.10105775 -0.052380942 -0.11393394 0.4103108 -0.90480107
0.080544509 -0.033309739 -0.0071477364 0.68827426 0.63330787 -0.35383698
0.072345495 -0.027497994 -0.012128235 0.68924856 0.61380059 -0.38494968
0.056774631 -0.015730459 -0.019065723 0.76450551 0.61257643 -0.20070478
0.056155644 -0.014539714 -0.020808652 0.9116568 0.4085184 -0.044671543
0.067741878 -0.026303964 -0.017680593 0.79267281 0.46111491 -0.39880285
0.075062312 -0.03225489 -0.013637106 0.68703645 0.52324086 -0.50418341
0.057084959 -0.014653709 -0.0073516546 0.54903501 0.80695111 0.21769558
0.059966654 -0.016513068 -0.0085956333 0.57981849 0.81419086 0.030077197
0.059799787 -0.018238375 -0.018224303 0.69254106 0.64565951 -0.32173234
0.062532373 -0.018632619 -0.011587492 0.35453001 0.89565331 -0.2685419
0.055795133 0.021508271 -0.10166954 0.93954939 -0.34191719 0.018457178
0.079219013 -0.032144088 0.006962921 0.49833149 0.77832699 0.38193423
0.091780163 -0.051566433 0.0066732978 0.23676094 0.56895339 0.78755134
0.010488463 0.10988104 -0.046335053 0.0010198361 0.53190768 -0.84680223
0.026674468 0.095831029 -0.055170227 -0.028016953 0.47347263 -0.88036346
0.034379631 0.086133733 -0.060428575 0.055575769 0.52740681 -0.84779382
0.039668586 0.088320352 -0.06007795 -0.11632133 0.42527968 -0.89755642
0.078700662 -0.050534636 -0.015693547 0.32507113 -0.15769264 -0.93244994
0.076522015 -0.053787723 -0.015049525 0.21318099 -0.3310855 -0.91920477
0.094152875 -0.051002864 -0.0022972587 0.47304085 0.53107125 -0.70299119
0.055554919 0.047869999 -0.082634442 0.1326026 0.43356216 -0.89131445
0.056218702 0.042820625 -0.085329212 0.27133366 0.4844147 -0.83169788
0.055587698 0.038449973 -0.087491766 -0.13027447 0.4572348 -0.87975335
-0.02453115 -0.035406779 -0.12071955 -0.06401962 0.4825879 -0.87350512
0.079659805 -0.049500294 -0.014852711 0.50061226 0.2170323 -0.83802462
0.091683239 -0.048870813 0.0022090711 0.44679695 0.79305923 0.41404158
0.096390739 -0.051317926 0.0012219887 0.53813201 0.83968675 0.073081754
0.10068038 -0.054507539 0.004220821 0.50889868 0.82725221 0.23806891
0.10329789 -0.056757919 0.0038895165 0.85338283 0.50871193 -0.11380103
0.10081916 -0.054666609 0.00076741364 0.68087202 0.62085491 -0.38852733
0.10480843 -0.058800846 0.0091549093 0.91404575 0.4044587 0.030569211
0.094853818 -0.051648568 0.0041082045 0.40686372 0.83562815 0.36903703
0.094555914 -0.047666404 -0.0056245429 0.76401895 0.33452588 -0.55169594
0.092166312 -0.050159231 -0.0091497935 0.64273483 0.24797592 -0.72484547
0.085699916 -0.053695917 -0.012978701 0.34897441 -0.17698844 -0.92026788
0.041807294 0.083358839 -0.039315332 0.79902714 0.55675548 0.22711197
0.059139889 0.035089612 -0.084819831 0.99145305 -0.048426013 -0.12114695
0.033553727 0.095404431 -0.042845175 0.71478617 0.64246517 0.27626121
0.040093098 0.096622974 -0.059491612 0.70470518 0.22844622 0.67171717
0.041965302 0.087097563 -0.049127411 0.80700284 0.54672652 0.22324288
0.059685223 0.033514 -0.079979084 0.99484742 -0.039462745 -0.093392819
0.013400602 0.11105802 -0.038765185 0.52020907 0.78545469 0.3353273
0.047414165 0.081491277 -0.056998815 0.86626649 0.47534758 0.15371375
0.014015916 0.11645661 -0.046570372 0.22680023 -0.18310674 0.95657444
-0.10681962 -0.011264103 -0.10194819 -0.13429032 0.40247491 -0.90552807
0.040499277 0.090530448 -0.051891703 0.7882635 0.57187355 0.22716132
0.046713594 0.088034727 -0.063574128 0.82270974 0.2590293 0.50601727
0.04495341 0.086597033 -0.060214747 0.84351373 0.46222183 0.27356276
0.047610827 0.087211616 -0.065697454 0.86743158 0.3984485 0.29799691
0.046750613 0.083832055 -0.062315762 0.85929304 0.37922272 0.34322938
0.04560449 0.082963988 -0.053255733 0.83860141 0.50725025 0.19860968
0.049854785 0.082855247 -0.06870079 0.88194156 0.47026965 -0.032039128
0.052437242 0.077753097 -0.071829528 0.89864361 0.43794802 0.025344865
0.053367771 0.075347796 -0.070289366 0.92012691 0.25748309 0.29507616
0.016557099 0.10867021 -0.047732349 -0.080610894 0.46565646 -0.88128716
0.00869794 0.10720818 -0.04831345 0.18941344 0.72991073 -0.65677536
0.027531834 0.10050847 -0.052791834 -0.06398537 0.45992041 -0.88565242
0.033136114 0.095965929 -0.055525132 -0.087587394 0.44844612 -0.88950861
0.048915885 0.074457854 -0.068312541 -0.14809276 0.42344102 -0.89373779
0.046972375 0.069094442 -0.070478976 0.04454143 0.61322713 -0.78865039
0.051163442 0.068283267 -0.071789086 -0.14718784 0.45556086 -0.87795281
0.050291173 0.061363406 -0.075154364 -0.20353034 0.42901257 -0.88007087
0.060350344 0.046709441 -0.088287421 0.99846649 -0.049342152 0.025120065
0.082944356 -0.03812363 -0.0090802377 0.61427504 0.59755099 -0.51536381
0.037424315 0.0041347458 -0.10551129 0.37622374 0.17403536 -0.91003758
0.085416108 -0.040442094 -0.0094352383 0.5753293 0.58698934 -0.56959683
0.041786186 0.0022823194 -0.10588889 -0.044481952 0.49094927 -0.87005234
0.03438016 -0.00029545565 -0.10783599 0.044529285 0.29606131 -0.95413095
0.032303501 -0.007245454 -0.10991158 0.095433913 0.31504032 -0.94426852
0.10221764 -0.058238361 0.0009193946 0.80232179 0.067405082 -0.59307432
0.079916663 -0.057495594 -0.013510469 0.27164918 -0.30105317 -0.91409779
0.020978123 -0.013704771 -0.11355602 0.044866931 0.34436181 -0.93776482
0.097665757 -0.060976807 -0.003457597 0.55334318 -0.085921176 -0.82851052
0.079798594 -0.059161004 -0.01224994 -0.026302885 -0.56856906 -0.8222155
0.025144029 -0.013938863 -0.11298342 0.16478363 0.20392425 -0.96501929
0.013118244 -0.022249838 -0.11658678 0.11804833 0.20327941 -0.97197902
0.0074588247 -0.024868475 -0.11753633 0.02470251 0.31269348 -0.94953334
-0.0044120597 -0.030362938 -0.11946614 -0.0014747446 0.39003593 -0.92079902
-0.01868275 -0.034388062 -0.12050721 -0.051354431 0.35781208 -0.93238091
-0.025545325 -0.037733052 -0.12185226 -0.077258311 0.46349904 -0.88272357
0.058944821 0.052153654 -0.086511612 0.96021187 0.079215206 -0.26780424
0.060666408 0.054891814 -0.084241614 0.98299915 -0.18074894 -0.03230314
0.060792629 0.048370752 -0.085717946 0.97294807 0.20956306 -0.097243801
0.08624734 -0.037326947 -0.0052868566 0.57774758 0.68791813 -0.43929186
0.094902374 -0.043920822 -0.0020037817 0.77558845 0.5017131 -0.38307634
0.091609851 -0.053771164 -0.010167912 0.47753671 0.066588812 -0.8760854
0.090211757 -0.041438699 -0.0051911119 0.64191282 0.56475657 -0.51865095
0.044795632 0.091350563 -0.062415965 0.78015071 0.3007091 0.54857993
-0.013221793 0.11555595 -0.044390466 0.24004334 0.92639738 -0.29011774
-0.0021980612 0.11139189 -0.04704316 0.10567874 0.77192914 -0.6268639
0.0066133663 0.11317265 -0.044581041 -0.0047337417 0.54081845 -0.8411265
0.0023112346 0.11108834 -0.045896977 0.12223379 0.65811211 -0.7429322
0.031512536 0.08923506 -0.058834404 0.51421314 0.69737315 -0.49925607
0.039494649 0.084547639 -0.062199321 -0.15729134 0.38159695 -0.91084808
0.043210234 0.081759997 -0.063770287 -0.15386635 0.35124436 -0.9235549
0.040348072 0.077701449 -0.06517373 0.37731591 0.64895254 -0.66067719
0.095385611 -0.056778233 -0.0045913043 0.4023771 0.24435891 -0.88225991
0.083161868 -0.052305773 -0.013962116 0.25412458 -0.25599903 -0.93267691
0.044367317 0.0690827 -0.070751362 0.46481058 0.79230934 -0.39521882
0.048976868 0.054397903 -0.078471892 0.51355648 0.64440691 -0.56656909
-0.10361432 -0.01022697 -0.10182884 -0.44009414 0.085842818 -0.8938396
-0.10069988 -0.017367942 -0.10521953 -0.044029653 0.58265865 -0.81152391
-0.021206649 -0.037133947 -0.12191742 -0.071894102 0.49723226 -0.86463416
-0.091914617 -0.023816491 -0.10955788 -0.10105019 0.47105777 -0.87629592
-0.1048387 -0.00086850027 0.013598647 -0.72782803 -0.22739892 0.64695996
0.051188603 0.01884391 -0.097679108 0.52423018 0.31958348 -0.78933519
0.049572825 0.018338688 -0.099428542 0.046019718 0.35999486 -0.93181908
0.047943138 0.010801358 -0.10208631 -0.18474241 0.46471325 -0.86597502
0.043732379 0.0064289332 -0.10410786 0.085893191 0.41611394 -0.90524727
-0.079086207 -0.031036403 -0.11410868 -0.23361048 0.3367584 -0.91215181
0.037859831 -0.0033624172 -0.10962113 -0.41430345 0.65710127 -0.6297394
-0.043457769 -0.040063724 -0.12145977 -0.054207698 0.38492584 -0.92135477
-0.062391814 -0.036946889 -0.11830515 0.02465097 0.65104181 -0.75864208
-0.10913317 -0.00032998913 -0.097079396 -0.49932122 0.14701998 -0.85385263
-0.089733139 -0.020005161 -0.10864831 -0.21894532 0.34086201 -0.91426313
-0.0017830039 0.11694645 -0.041895524 -0.052188709 0.51839578 -0.85354728
0.0022155026 0.11449333 -0.043322932 0.036903009 0.64219445 -0.76565361
-0.0058663315 0.11780637 -0.040816631 -0.012396453 0.61391711 -0.78927374
-0.096722431 -0.001189112 0.063419826 -0.95362794 0.29656345 0.051428009
-0.10698617 -0.0052129212 -0.099233963 -0.40016845 0.21188962 -0.89161032
-0.089061156 0.0093338219 0.043137271 -0.84460461 0.46990898 -0.25657263
-0.032134756 -0.050870392 0.10435391 -0.0026552214 0.28180668 -0.95946801
-0.0401273 -0.049554273 0.10419986 0.046429228 0.015710115 -0.99879855
-0.037446182 -0.051828433 0.10407937 -0.045398097 -0.0038843784 -0.99896187
-0.047997359 -0.04411849 0.10344735 0.22664496 0.11972763 -0.96659106
-0.043840311 -0.049374685 0.10382073 0.053277984 -0.089278705 -0.99458116
-0.033058167 -0.054731611 0.10376308 -0.1561636 -0.040087759 -0.98691785
-0.048719 -0.047414362 0.10341316 0.12182619 -0.12176345 -0.98505485
-0.079609506 -0.027517846 -0.1128284 -0.17019884 0.32117969 -0.93159914
-0.073370777 -0.028205868 -0.11436208 -0.078378588 0.34213886 -0.93637532
-0.0050812745 -0.06453751 0.092542127 -0.59269857 -0.23027992 -0.77180338
-0.035931829 0.10309813 0.0055230283 -0.032461815 0.86162353 0.5065096
-0.088043369 0.010569594 0.039521057 -0.88322073 0.45996597 -0.091398112
-0.045027982 -0.0091974968 0.039996315 -0.17332761 -0.33116531 0.92751718
-0.0020990837 -0.055788152 0.095061652 -0.3703171 0.63836318 -0.67480278
0.0021745174 -0.056646321 0.09091343 -0.49058792 0.55439109 -0.67229074
0.00039522673 -0.061726242 0.08834476 -0.62082928 0.36422944 -0.69419652
-0.0051913988 -0.056796953 0.094938196 -0.35130078 0.61581212 -0.70524055
-0.0068507404 -0.054481275 0.098303385 -0.27357128 0.67893171 -0.68133068
-0.014935979 -0.052251406 0.10262372 -0.0048902049 0.80954969 -0.58703178
-0.017705791 -0.054689527 0.10121366 -0.20067328 0.46040899 -0.86472809
-0.021961097 -0.05291323 0.10287875 -0.13993613 0.4016217 -0.90505189
-0.0038102302 -0.060294379 0.092272356 -0.53376603 0.36263552 -0.76393086
-0.025679965 -0.052506167 0.10333517 -0.051572122 0.38338831 -0.92214686
-0.0087523824 -0.059992004 0.095476948 -0.47525191 0.31352818 -0.82209277
-0.02079325 -0.056476723 0.1011482 -0.30229118 0.16627087 -0.93860275
-0.0079072798 -0.064051665 0.094609581 -0.57419527 -0.21048473 -0.79119962
-0.023030393 -0.058174819 0.10169537 -0.21182652 0.14278147 -0.96682155
-0.011468904 -0.061847202 0.096796542 -0.43465123 0.07721246 -0.89728338
-0.028065946 -0.05593662 0.10282138 -0.18482304 0.064623311 -0.98064542
-0.01688136 -0.063069768 0.099576667 -0.34551808 -0.12798963 -0.92964345
-0.019233609 -0.062074929 0.10038092 -0.35948646 0.021791747 -0.93289638
-0.021887952 -0.061710432 0.10156354 -0.36474738 -0.16327882 -0.91667897
-0.036010008 -0.057090692 0.10495138 -0.25138789 -0.41814899 -0.87290108
-0.092031464 0.0079752784 0.049073119 -0.76966238 0.63845134 -0.00091532932
-0.11310691 0.076192513 -0.033103272 -0.83611155 0.46600363 0.28941134
-0.1162478 0.073512889 -0.038046084 -0.85874033 0.42455816 0.28690812
-0.12266681 0.066786647 -0.050799202 -0.9217484 0.31691259 0.22348885
-0.12299529 0.063351862 -0.04763072 -0.92734432 0.30064359 0.22281595
-0.12230634 0.061113086 -0.041643679 -0.92631608 0.30555263 0.22040173
-0.12227815 0.041887071 -0.017736137 -0.93495417 0.23751925 0.26352683
-0.13104174 0.052048426 -0.07190568 -0.85554415 -0.16513835 0.49068767
-0.13170107 0.047687951 -0.073784083 -0.82779342 -0.17280596 0.53375739
-0.12952682 0.040799793 -0.064270891 -0.99584705 0.043449055 0.080011889
-0.12932777 0.044093981 -0.063899115 -0.99409586 0.061366946 0.089490503
-0.092746705 0.0049850494 0.037589591 -0.84883589 -0.37422794 -0.37340581
-0.1304481 0.032520723 -0.083575703 -0.87122643 0.20169225 -0.44753286
-0.12973845 0.029624972 -0.069023743 -0.99708372 -0.075568199 0.010696916
-0.1291465 0.024040693 -0.06928239 -0.99492019 -0.10041368 -0.0072059333
-0.1289337 0.021909101 -0.07291887 -0.98831767 -0.14544478 -0.045552351
-0.12947133 0.027412187 -0.076300874 -0.99274385 -0.11897063 -0.017510509
-0.12829679 0.020981882 -0.042365249 -0.99692494 -0.022239733 0.075146303
-0.1299842 0.023048665 -0.087125503 -0.90314269 -0.32853457 0.27640447
0.0034815599 -0.062186103 0.084242836 -0.65184009 0.064225726 -0.75563258
-0.00081763172 -0.065149955 0.088399082 -0.72162235 -0.0031186952 -0.69228065
0.00086110813 -0.065113291 0.086254545 -0.67061317 -0.14558718 -0.72738117
-0.0013398858 -0.066262163 0.08904133 -0.58756244 -0.61778218 -0.52260542
-0.11258269 -0.018470734 -0.011770871 -0.83432704 -0.42776754 0.34772718
-0.039467532 0.027228091 0.047596287 0.012291482 -0.10658418 0.99422818
-0.09817487 0.085438684 -0.015230716 -0.67066514 0.63355178 0.38577393
-0.1003699 0.079426371 -0.0089821592 -0.69526601 0.59684384 0.40047917
-0.10865166 0.079648174 -0.027181862 -0.77703565 0.53737682 0.32778463
-0.10580327 0.08083386 -0.022394637 -0.75863069 0.54780734 0.35268608
-0.10472785 0.076605164 -0.01340454 -0.74826777 0.56531537 0.34715265
-0.10950612 0.075946793 -0.023442013 -0.79784167 0.50514305 0.3290593
-0.11349246 -0.019121373 -0.014346824 -0.81038779 -0.46114993 0.3614046
-0.10747637 0.074587703 -0.01640409 -0.78354371 0.52523273 0.33194998
-0.10736391 0.071219943 -0.010992773 -0.78580225 0.50854641 0.35198897
-0.10972232 0.070735618 -0.015789077 -0.80095232 0.49929065 0.33043176
-0.11247396 0.061471637 -0.010011206 -0.82651037 0.44487265 0.34492019
-0.11410604 0.061024435 -0.013227943 -0.8560676 0.42380652 0.29586667
-0.11397833 0.048066873 -0.00099260244 -0.83914208 0.2666854 0.4740468
-0.11781772 0.050010998 -0.010715254 -0.8846789 0.30618405 0.35156155
-0.12773021 0.047778759 -0.053066302 -0.98025495 0.14308044 0.136489
-0.12696539 0.051488902 -0.052450191 -0.97056204 0.184663 0.15462857
-0.12893501 0.047986843 -0.063009635 -0.98640466 0.12113206 0.11105752
-0.12747854 0.045241896 -0.049093183 -0.97903222 0.14433411 0.14375167
-0.1266001 0.042361278 -0.039933112 -0.9757331 0.16165532 0.14769351
-0.12527139 0.045379963 -0.035798278 -0.96731311 0.19080856 0.16702792
-0.1288317 0.044439889 -0.058464475 -0.988693 0.098402888 0.11315437
-0.11145858 -0.016756294 -0.0068252841 -0.82419115 -0.41154721 0.38902265
-0.12990583 0.039382506 -0.068712212 -0.99828357 0.033832114 0.047814541
-0.12948307 0.036122728 -0.061323859 -0.99694586 0.019351156 0.075667657
-0.13007034 0.040375546 -0.07444898 -0.99197441 -0.031838737 0.12236822
-0.12803413 0.033098109 -0.042817079 -0.99335778 0.05740428 0.09972968
-0.12881061 0.031350888 -0.051536914 -0.99721748 0.014988892 0.073032618
-0.13003331 0.034967739 -0.070162177 -0.99981207 -0.013852096 0.013596395
-0.12694283 0.033353604 -0.034112249 -0.98619103 0.095118724 0.13557476
-0.12553579 0.031437699 -0.024056954 -0.97933483 0.10045253 0.17553821
-0.12909298 0.023283491 -0.063765712 -0.99562395 -0.090034887 0.025055595
-0.12937342 0.03055099 -0.059333984 -0.9981423 -0.031668458 0.052057821
-0.09160196 0.0061985119 0.035051093 -0.87275976 -0.26154834 -0.41216952
-0.12778869 0.019548932 -0.038272358 -0.99550647 -0.029720183 0.089914441
-0.093534358 0.0054711848 0.041091558 -0.99254709 -0.073206037 -0.09742748
-0.12922812 0.020070406 -0.087503023 -0.92155325 -0.2693941 0.27958441
-0.04312636 -0.01575713 0.037627559 -0.13188413 -0.42796373 0.8941223
-0.12844959 0.018619733 -0.063596249 -0.98968261 -0.14240324 0.015833788
-0.12748824 0.016908465 -0.081801079 -0.97553575 -0.20376457 -0.082528606
-0.12670532 0.012518438 -0.07771109 -0.96902966 -0.23673508 -0.070277706
-0.12629113 0.010181738 -0.074841484 -0.96664149 -0.24849236 -0.062102851
-0.12561487 0.0090383897 -0.081637748 -0.95668203 -0.27409506 -0.098145187
-0.12425867 0.008317234 -0.088620074 -0.94278884 -0.22238491 -0.248385
-0.12446496 0.0073861964 -0.083332531 -0.9405145 -0.30531308 -0.14905475
-0.019611942 0.01408677 0.044864632 0.13425496 -0.11136837 0.98466927
-0.12289103 0.0048373854 -0.090239242 -0.90425736 -0.21445161 -0.36922923
-0.096795656 -0.0039643864 0.058111053 -0.97253209 -0.14524484 -0.18189654
-0.095904328 -0.0031615912 0.071220443 -0.84582371 0.44084057 0.30040443
-0.10068529 0.096571878 -0.038357221 -0.68087906 0.6365394 0.3622463
-0.096177846 0.08425501 -0.0098469192 -0.64717251 0.64829838 0.40109593
-0.096286155 0.081547178 -0.0058834064 -0.65960598 0.62301749 0.42044038
-0.097997159 0.078256331 -0.0036468676 -0.67628235 0.60978156 0.41329116
-0.095090099 0.077107042 0.0025270339 -0.65856206 0.60152441 0.45217842
-0.06399814 0.0054569538 0.039771777 -0.060565151 -0.36954612 0.92723703
-0.10122102 0.075168096 -0.0046645724 -0.69881088 0.58036178 0.41814411
-0.097964749 0.074904747 0.0011886714 -0.6863004 0.58078426 0.43781546
-0.095508739 0.07305748 0.006855052 -0.65385574 0.53356057 0.53645754
-0.099833347 0.063202649 0.0098597892 -0.6958679 0.42923185 0.57578546
-0.10211234 0.057998788 0.010633647 -0.72295851 0.3690879 0.58404285
-0.099469483 0.059477616 0.012803263 -0.69858545 0.39433363 0.59705973
-0.12467263 0.058892641 -0.048755538 -0.94437981 0.26212949 0.1985849
-0.10378446 0.059994973 0.0071977084 -0.74964917 0.38208815 0.54040331
-0.1053315 0.052654482 0.0097667295 -0.74841243 0.34341428 0.5674032
-0.12937601 0.050761186 -0.069274142 -0.95662099 0.00069841294 0.29133603
-0.1060976 0.048539985 0.011021998 -0.77466428 0.27826691 0.56785893
-0.12811728 0.050464127 -0.059155006 -0.97813195 0.15743466 0.13591613
-0.12975685 0.046753142 -0.071071491 -0.93081498 -0.10142147 0.35113835
-0.12959662 0.045540076 -0.067608349 -0.99624074 0.050087348 0.070686176
-0.12904207 0.039199945 -0.057715472 -0.9953804 0.049341708 0.082366049
-0.12865403 0.040333793 -0.053829301 -0.98913777 0.088805266 0.11713707
-0.12991761 0.035346687 -0.066407882 -0.99835175 -0.0027810014 0.057331614
-0.13183528 0.032340862 -0.080956273 -0.94770575 -0.24158327 0.20854811
-0.12406579 0.038161952 -0.02171319 -0.95215803 0.20723389 0.22461122
-0.12139552 0.033388123 -0.010167636 -0.9253071 0.13225009 0.35541204
-0.12273317 0.037507873 -0.015700627 -0.93963873 0.1828005 0.28924745
-0.12960325 0.030143654 -0.063642673 -0.99758089 -0.0395859 0.057150565
-0.1287792 0.027231857 -0.050247282 -0.99854136 -0.0092011252 0.053210467
-0.12399385 0.034513637 -0.018028896 -0.95822978 0.12731981 0.25609815
-0.12796704 0.026850615 -0.038509339 -0.9940632 0.029667675 0.10468561
-0.12946215 0.02599776 -0.065230377 -0.99594289 -0.088681303 0.01530756
-0.12507437 0.028105991 -0.019953057 -0.9718014 0.067822844 0.22583845
-0.12655762 0.02683408 -0.027867576 -0.98659235 0.069536783 0.14765176
-0.12839629 0.026883665 -0.044644613 -0.99736547 0.018633932 0.07011348
-0.12214539 0.027568273 -0.010553078 -0.92642725 0.054330152 0.37253422
-0.12345843 0.029109707 -0.014671472 -0.95104742 0.073887832 0.30008405
-0.12339717 0.024130318 -0.013434102 -0.9471404 0.043854818 0.31780934
-0.12596916 0.023189567 -0.022822581 -0.98314947 0.031892825 0.18000288
-0.12688674 0.022665003 -0.02898293 -0.99197495 0.011432897 0.12591983
-0.12192776 0.021521905 -0.0099459514 -0.92040211 0.004102075 0.39095289
-0.088467978 0.011350704 0.044520676 -0.55530244 0.82598263 0.096916378
0.017910002 -0.05335008 0.073608033 -0.55316049 0.82054585 -0.14394039
-0.093793809 0.0026386841 0.044011429 -0.97656494 0.13803266 -0.16513316
-0.095639966 0.00096452696 0.050446488 -0.9782092 0.10416067 -0.17960599
-0.096278749 0.0009783667 0.057317376 -0.9586665 0.28393701 -0.018420734
-0.097155698 -0.0036421437 0.063549995 -0.99835235 0.032836374 -0.047066338
-0.068988323 0.074137874 0.027133023 -0.38041195 0.52819389 0.75914347
-0.084326521 0.016101742 0.037500821 -0.40602222 0.87229824 0.2724748
-0.12852769 0.022052769 -0.047018506 -0.99825466 -0.04456535 0.038762223
-0.12786146 0.014707893 -0.063915387 -0.98294973 -0.18380003 -0.0053217364
-0.12774666 0.040769368 -0.046603996 -0.9861365 0.11247256 0.12200679
-0.12746398 0.023160858 -0.033821404 -0.99359328 0.012818957 0.11228938
-0.094981529 0.0035839137 0.050128471 -0.93044364 0.31835791 -0.18144907
-0.12599307 0.015851095 -0.087165967 -0.95709294 -0.26153862 -0.12478665
0.011660933 -0.054364637 0.085956477 -0.13377167 0.99084532 -0.018212488
0.0091424398 -0.054634877 0.090345807 -0.083589874 0.99535161 -0.047842078
0.0037874337 -0.05467527 0.092934139 -0.19457524 0.95595223 -0.2197655
-0.093387857 0.1027735 -0.036893569 -0.61654937 0.68299091 0.39165199
-0.098269433 0.095880106 -0.033052493 -0.65029359 0.65816408 0.37939328
-0.097149797 0.094192833 -0.028131349 -0.6526444 0.65924114 0.37343994
-0.10539319 0.085478835 -0.029155882 -0.74478614 0.55650252 0.36823821
-0.10465985 0.084216997 -0.025607871 -0.75039285 0.56986159 0.33491659
-0.077757001 0.083368145 0.013544114 -0.46477503 0.64665329 0.60483444
-0.12290145 0.074370362 -0.059310433 -0.89318192 0.25040299 0.3735311
-0.12171771 0.076025762 -0.05733319 -0.25908706 0.024793725 0.96553618
-0.10620172 0.077934466 -0.018973636 -0.75781828 0.55294126 0.34636432
-0.086610563 0.076678418 0.012520023 -0.56052279 0.56453478 0.60590059
-0.1255205 0.069681101 -0.062723912 -0.92629868 0.19281296 0.32372034
-0.12566108 0.066045932 -0.062248692 -0.95072061 0.17366147 0.25685194
-0.12402404 0.067132637 -0.056924038 -0.9294377 0.25506812 0.26662111
-0.12678228 0.058080643 -0.05955112 -0.96135187 0.21039206 0.17759167
-0.12476076 0.062392626 -0.054020748 -0.95079875 0.24954501 0.18360287
-0.12091935 0.06180723 -0.036648948 -0.90758085 0.34654337 0.23707758
-0.077794276 0.065222993 0.028083522 -0.46914631 0.43802685 0.76683456
-0.11693988 0.059193186 -0.019225931 -0.87596101 0.38648462 0.2886571
-0.080118522 0.059791576 0.029481541 -0.48777375 0.38544708 0.78326774
0.058812063 -0.046628967 0.014787686 -0.48005742 -0.16699067 0.86119682
-0.089553989 0.056219291 0.024443038 -0.58782512 0.3381238 0.73493862
-0.12016673 0.053118575 -0.022031231 -0.91615421 0.32029137 0.24098951
-0.11957786 0.051748317 -0.017717609 -0.9166702 0.30134246 0.26250622
-0.13166896 0.0438428 -0.075535014 -0.82766193 -0.22622089 0.51361525
-0.12128007 0.053710822 -0.02712677 -0.92482817 0.30244964 0.23069051
-0.13170458 0.04045124 -0.076898515 -0.81664318 -0.20787583 0.53840727
-0.1219289 0.048856612 -0.024004042 -0.93254381 0.27526635 0.23364817
-0.12365283 0.048352052 -0.030047445 -0.94728774 0.24641961 0.20475443
-0.12376162 0.044436797 -0.026268652 -0.95313036 0.2198429 0.2078764
-0.12994981 0.033680085 -0.077592336 -0.99678952 -0.056585219 0.056653626
-0.12528369 0.042889647 -0.032595038 -0.96310079 0.20880802 0.16981478
-0.038402572 0.047488563 0.04640175 -0.063757487 0.20514707 0.9766528
-0.12750651 0.037242241 -0.041687112 -0.98557985 0.11082739 0.12786929
-0.12068357 0.04073064 -0.011440968 -0.92227387 0.18592466 0.33888626
-0.12598151 0.033643972 -0.028358752 -0.98232585 0.1007165 0.15777528
-0.11909201 0.042494703 -0.0083490554 -0.90416783 0.20008282 0.3774235
-0.11787866 0.037725255 -0.0036392927 -0.89430714 0.15916376 0.41818979
-0.10557403 0.024839204 0.017532166 -0.7487244 0.017387815 0.6626541
-0.081085391 0.017410802 0.036644716 -0.50073725 0.41241366 0.76103747
-0.1243542 0.01728799 -0.017295169 -0.96023655 -0.057871692 0.27312586
-0.10838619 0.018520992 0.013976185 -0.79081404 -0.059418414 0.60916626
-0.088386849 0.0051538437 0.030314377 -0.84582764 -0.20265576 0.49346444
0.028289849 -0.038238548 0.041697785 -0.34002718 0.82121927 0.45823735
-0.11371107 0.010434226 0.0051335278 -0.83158863 -0.13510847 0.53870851
-0.1122033 0.0044286898 0.0053919679 -0.82377279 -0.19550698 0.53214318
-0.119514 0.0057893507 -0.0083579272 -0.91263908 -0.17799909 0.36797717
-0.11610191 0.0052987142 -0.00061443192 -0.8636691 -0.1889458 0.46730712
-0.11911648 -0.00039798941 -0.010251272 -0.89887828 -0.24258588 0.36492586
0.024564516 -0.044836674 0.049076021 -0.75339788 0.61368161 0.23619358
0.022843562 -0.048769698 0.055561803 -0.81690663 0.57018727 0.086895749
-0.094867662 0.0020659931 0.063080512 -0.76216519 0.60744852 0.22385591
-0.1234071 0.05189715 -0.034130078 -0.93265265 0.28926563 0.21560486
-0.12236883 0.045004684 -0.020979995 -0.93971521 0.25107056 0.23216332
-0.13111612 0.027911 -0.084352717 -0.92204595 -0.29853851 0.2463883
-0.086966313 0.11146291 -0.041320119 0.16288866 0.96002185 -0.22765394
0.044743016 -0.025388362 0.007759884 -0.037994165 0.23029375 0.97237968
-0.11465042 -0.012570449 -0.010054268 -0.85404658 -0.36011705 0.37539461
0.024959046 -0.045795303 0.052802425 -0.52630037 0.79450154 0.30294564
0.025763538 -0.046876583 0.057725307 -0.45107108 0.85588908 0.25296181
-0.037891764 -0.019744102 0.036295958 -0.11079341 -0.46548542 0.87809414
-0.095337532 -0.0070965122 0.0778054 -0.81928927 0.43355244 0.37523076
-0.09178257 -0.0021878809 0.076762334 -0.47037983 0.74503553 0.47293335
-0.064541064 -0.037140895 0.11759654 -0.40086201 0.033081181 0.91554153
-0.1163847 0.08380758 -0.05446595 -0.84467608 0.45458716 0.28261936
-0.10935564 0.046261624 0.0072916546 -0.80527467 0.25214046 0.53661782
-0.10524425 0.087187193 -0.031278592 -0.74783665 0.56491566 0.34872851
-0.082471706 0.08971478 0.00097525452 -0.52107024 0.7193017 0.45944715
-0.11444365 0.077721067 -0.039078128 -0.83370972 0.46131846 0.30350319
-0.080782928 0.085011944 0.0090192296 -0.51470733 0.65553308 0.55258822
-0.09141396 -0.0076384754 0.084304519 -0.51928627 0.64390177 0.56190145
-0.09289217 0.084804766 -0.0055502555 -0.63939303 0.651869 0.40773091
-0.11792272 0.079025969 -0.05137156 -0.86653364 0.46319237 0.18593888
-0.09414383 0.080893613 -0.0014661524 -0.65243262 0.62912637 0.42253128
-0.088002816 0.084094428 0.0024639089 -0.57640696 0.6759522 0.45917827
-0.07672216 0.078223452 0.019266671 -0.45580894 0.59744358 0.65977293
-0.1180344 0.074217439 -0.044452559 -0.87656432 0.39813042 0.27042237
-0.091259971 0.080347262 0.0036613534 -0.61643213 0.63083881 0.47122681
-0.11931942 0.068532169 -0.040419273 -0.89433879 0.36665988 0.25635868
-0.11663675 0.070107788 -0.034049187 -0.86885881 0.41615656 0.26813981
-0.087879315 0.078774296 0.0092453836 -0.57151216 0.60233462 0.55728602
-0.067124851 0.078130201 0.024968006 -0.3643091 0.59576118 0.71578521
-0.07465443 0.073563404 0.024541002 -0.41300586 0.54496747 0.72968316
-0.11401365 0.06700775 -0.021503959 -0.85063696 0.4303827 0.30197397
-0.11100724 0.070984513 -0.019468321 -0.81507176 0.48728648 0.31338617
0.018911485 -0.053580262 0.067178629 -0.81931233 0.52834404 -0.22266722
-0.11756796 0.06729316 -0.032540411 -0.88479507 0.38889128 0.25671461
0.017005552 -0.054456901 0.071662433 -0.83027488 0.47841057 -0.28595084
-0.065451361 0.071012169 0.030870389 -0.33489555 0.513071 0.79031897
-0.10769624 0.067856453 -0.0071175145 -0.79214489 0.49670875 0.35466579
-0.094471909 -0.011360323 0.08372616 -0.83487415 0.32289931 0.44578257
-0.08951854 -0.01148101 0.090012722 -0.50192773 0.63159192 0.59089857
-0.12097352 0.058288436 -0.03194347 -0.91909403 0.31636095 0.23491046
-0.067610517 0.062721051 0.034431778 -0.33094779 0.40666336 0.85152769
-0.061874397 0.065118268 0.035622813 -0.30300426 0.42827037 0.85133642
0.01319304 -0.054445781 0.081849106 -0.4340463 0.88141704 -0.18630315
0.0090567945 -0.056261305 0.083782174 -0.50217998 0.78195029 -0.3692829
0.0081260838 -0.055199225 0.086813658 -0.31078938 0.91889137 -0.24300122
-0.1120762 0.055263862 -0.002392716 -0.83444118 0.32278556 0.44667479
-0.10841879 0.050778221 0.0067639248 -0.78798246 0.30784518 0.53321272
-0.11046849 0.05308729 0.0019273502 -0.81585354 0.3128379 0.48632956
0.0046609519 -0.055645265 0.089918539 -0.46302611 0.78924102 -0.40336886
-0.11074822 0.048733 0.0040291003 -0.82137978 0.26528689 0.50493479
-0.07516481 0.042965531 0.038197104 -0.43278092 0.17578384 0.88419557
-0.11443356 0.034242831 0.0039104284 -0.86079413 0.14092973 0.48905325
-0.11178547 0.032725777 0.0086305728 -0.82078594 0.10803517 0.56092745
-0.10766319 0.037266061 0.013359645 -0.77543008 0.14618234 0.61427981
-0.10811229 0.030953312 0.013800979 -0.78304029 0.073786333 0.61757952
-0.097522013 0.034062982 0.02469914 -0.67423838 0.11078639 0.73015755
-0.059815001 0.025756961 0.045044851 -0.2267413 -0.050761689 0.97263181
0.050433561 -0.022056995 0.0064013395 0.11330159 0.43843681 0.89159238
-0.090481997 0.025438515 0.031303573 -0.59385109 -0.011813384 0.80448878
0.043477811 -0.023205807 0.0064016338 -0.46820319 0.25507385 0.84600466
-0.11157121 0.025165714 0.0097065456 -0.82008111 0.033776052 0.57125044
-0.081646957 0.026683541 0.036594719 -0.46206447 -0.0078843683 0.88681191
-0.082981363 0.021889731 0.035724673 -0.48038638 -0.03734586 0.87626207
0.060868639 -0.026544807 0.0091282986 0.14834775 0.64089912 0.75315493
-0.07407102 0.02237043 0.040208131 -0.41226768 -0.07218685 0.90819895
0.055482868 -0.028016232 0.010616185 0.030360008 0.46046224 0.8871606
-0.11407503 0.021105899 0.0058510974 -0.85262328 -0.014568466 0.52232379
-0.049280018 0.012465286 0.044454236 -0.13102503 -0.13171318 0.98259097
-0.067550704 0.019505005 0.042447012 -0.26222688 -0.10959879 0.95876282
-0.075208925 0.015047973 0.03866851 -0.19793876 0.14990206 0.96868497
-0.077815369 0.017813718 0.038041521 -0.29766226 0.16414227 0.94045502
-0.080448098 0.016647259 0.040030826 -0.0065986221 0.84940147 0.52770674
-0.06893035 0.01074558 0.039022166 -0.40340605 -0.38540205 0.82989734
-0.067172781 0.014674094 0.041700896 -0.32282263 -0.23562986 0.91665983
-0.082890965 0.014559978 0.040414222 -0.33154413 0.75493324 0.56582272
-0.065661043 0.010030073 0.041084707 -0.21610165 -0.30160609 0.92861986
0.0228194 -0.024650032 0.023899766 -0.11653015 0.52420759 0.84358042
0.020723345 -0.025917133 0.02439761 -0.32192475 0.37973326 0.86727619
0.070371278 -0.04026163 0.01725506 -0.10170925 0.36504784 0.92541683
-0.11800139 0.0025568481 -0.0057104002 -0.89656246 -0.20303753 0.39364007
-0.089946024 0.0077983276 0.029476205 -0.60231364 -0.19455636 0.77418786
-0.11366986 0.0011514697 0.0016135215 -0.83094442 -0.25326684 0.4953666
-0.093127199 0.044365674 0.026179211 -0.63092303 0.22679879 0.74195647
-0.087003671 -0.0013911187 0.028789621 -0.53217638 -0.31056961 0.78761393
-0.090860479 0.084243849 -0.0015498892 -0.61298388 0.65890628 0.43599793
-0.11613741 0.00073122856 -0.0030818465 -0.85722888 -0.25879201 0.44518104
-0.11158061 0.038830664 0.0070651034 -0.82062656 0.18528019 0.54059613
-0.10366731 0.031332742 0.018958239 -0.73556298 0.10251104 0.66965634
-0.091217771 0.0057531288 0.061407179 -0.36582902 0.86859071 0.33424568
0.070192851 -0.055572405 0.020595603 -0.51186794 -0.15363351 0.8452152
0.07842654 -0.062159795 0.018976647 -0.69881338 -0.38235161 0.60453951
0.020267038 -0.052017286 0.071610056 -0.42268416 0.9049198 0.049590226
0.018377276 -0.052833766 0.078462958 -0.15646829 0.98227602 0.1032108
-0.083666347 -0.021688543 0.1024757 -0.42753422 0.50690931 0.74850404
-0.031723659 -0.0075749336 0.040642906 0.097715355 -0.35364598 0.93026185
-0.030289169 -0.0050649173 0.042160962 -0.0096153971 -0.31989267 0.94740552
-0.075321682 0.11580298 -0.036902968 -0.55229557 0.73961979 0.38462064
-0.065132968 0.10815238 -0.014839088 -0.30985931 0.8302896 0.46325725
-0.069786772 0.10415666 -0.011661281 -0.38592264 0.80642283 0.44804782
-0.099302478 0.099772349 -0.041593656 -0.70575476 0.58623081 0.39779973
-0.097492397 0.099098258 -0.037364677 -0.64129269 0.66576606 0.38144505
-0.072140664 0.10028325 -0.0065044253 -0.40244141 0.79960001 0.44573718
-0.065729082 0.10030769 -0.0013421595 -0.34458598 0.81198728 0.47110301
-0.070289776 0.098205797 -0.0012519209 -0.3922399 0.7893936 0.47223565
-0.043215968 0.098380469 0.012029482 -0.1094408 0.8170656 0.56606311
-0.11461624 0.083545543 -0.048758987 -0.83165377 0.47549084 0.28681245
-0.11174867 0.087574452 -0.047956795 -0.7820881 0.6021347 0.16053958
-0.074101083 0.094625786 0.0014085545 -0.40836954 0.77992821 0.47428614
-0.11277015 0.083484329 -0.043591153 -0.80845839 0.50334042 0.30503175
-0.10843928 0.087294832 -0.03900326 -0.77119166 0.54805374 0.32388505
-0.055803247 0.090958454 0.017670058 -0.25753769 0.71835834 0.64624816
-0.069065832 0.09206529 0.0091739763 -0.39947957 0.74322295 0.53669053
-0.10013223 0.085704774 -0.019069986 -0.68726861 0.61598682 0.38499737
-0.10981064 0.080958039 -0.032122117 -0.79195839 0.51655734 0.32553232
-0.081303336 0.088248909 0.0041256859 -0.49068448 0.72252619 0.48701704
-0.061766792 0.090751819 0.015078153 -0.31237635 0.70212191 0.63988036
-0.086874276 0.082793579 0.0058384477 -0.55734146 0.64553052 0.52217031
-0.062796973 0.086050965 0.019824065 -0.31025156 0.67582208 0.66858763
-0.073037617 0.084561594 0.015630011 -0.41874799 0.65987378 0.62387317
-0.069804311 -0.033351652 0.11470893 -0.3726244 0.30983958 0.87472928
-0.079156026 0.014764791 0.04258221 -0.038953301 0.74524081 0.66565746
-0.051315363 0.076186709 0.032158799 -0.18447393 0.58242506 0.79167622
-0.056816842 0.078502506 0.028735664 -0.23848389 0.58760488 0.77320558
0.074329987 -0.049981907 0.02236825 -0.28619033 0.13105838 0.94916791
-0.08851248 0.073512651 0.013713838 -0.56257463 0.54893124 0.61821121
-0.084137611 0.072078049 0.018626256 -0.53551376 0.53988189 0.64942557
-0.10281864 0.071238473 -0.0020224631 -0.72836536 0.54686397 0.41282511
-0.04190433 0.073745437 0.035256039 -0.071586311 0.5032562 0.86116755
-0.087596655 0.070333213 0.017256806 -0.58383185 0.50339991 0.63696921
-0.092891 0.068127222 0.01386719 -0.63770247 0.48111823 0.60154957
-0.051530436 0.067842074 0.037195932 -0.18082131 0.4530291 0.87296581
-0.040602837 0.067119449 0.039087769 -0.074145257 0.46459186 0.88241595
-0.036861256 0.062909998 0.041384444 -0.032590069 0.41990831 0.90698177
-0.092027403 0.064075254 0.01781195 -0.61247498 0.45589009 0.64578599
-0.11376621 0.055899322 -0.0061862366 -0.85645831 0.34957331 0.37984022
-0.043361284 0.06247431 0.041244581 -0.10408359 0.4121778 0.90513921
-0.095412895 0.059616037 0.017454805 -0.66110528 0.38413131 0.64450288
-0.092695288 0.057617661 0.021142563 -0.62700421 0.35016578 0.69588125
-0.084431745 0.060934726 0.026152812 -0.53343087 0.3905876 0.7502625
-0.048027001 0.054892048 0.043417707 -0.16286527 0.31981725 0.93337715
-0.087287359 0.049608696 0.029036965 -0.5709796 0.27365333 0.77401358
-0.058221191 0.051279552 0.042703252 -0.2701509 0.37895417 0.88510638
-0.10382947 0.04793112 0.014227497 -0.74247342 0.26426333 0.61554778
-0.047482677 0.045636557 0.046006769 -0.1285737 0.16907844 0.97718072
-0.055895865 0.046469133 0.044357792 -0.16692342 0.17627838 0.97008431
-0.10657386 0.040375788 0.013569085 -0.77134442 0.21298149 0.59972292
-0.050946318 0.041326765 0.04610192 -0.16627927 0.12905847 0.97759706
-0.090307772 0.041968253 0.029160272 -0.5921337 0.20291765 0.77987367
-0.045838386 0.039166104 0.047059737 -0.095680602 0.10823607 0.98951054
-0.093766592 0.034020945 0.028073082 -0.63061792 0.10842591 0.76848286
0.067882061 -0.052266642 0.019491397 -0.54975003 -0.081980281 0.83129722
-0.083537258 0.03493844 0.035369467 -0.51190114 0.13288946 0.84870398
-0.10919142 0.023489179 0.013003551 -0.79659134 0.018642219 0.6042313
-0.05574258 0.030765919 0.045745701 -0.18261878 0.0038814999 0.98317659
-0.080021486 0.034340736 0.037245348 -0.44075125 0.082664035 0.89381552
-0.087900095 0.033818949 0.032589555 -0.57420594 0.10495104 0.81195676
-0.01032678 0.017097207 0.041654043 0.18377422 -0.16706507 0.96866781
-0.084401287 0.029932292 0.035119429 -0.4975692 0.034925092 0.86672139
-0.065580621 0.026187455 0.043310162 -0.31563976 -0.041547704 0.94796956
-0.072017752 0.026219064 0.041152515 -0.34522843 -0.012406305 0.93843722
-0.076797716 0.027314223 0.039124183 -0.4316493 0.00308781 0.90203685
-0.021738518 -0.055253051 0.12014695 0.31306982 0.26477912 0.91207474
-0.029765243 0.017370148 0.046171106 0.030861424 -0.068612538 0.99716634
-0.061248645 0.017590676 0.043777347 -0.20733309 -0.15398361 0.96607614
-0.036798161 0.018357899 0.046554923 -0.3535828 -0.15171953 0.92301756
-0.034092382 0.018843532 0.046438813 0.0085191233 -0.11272939 0.99358976
-0.038829606 0.017537879 0.044409499 -0.25910771 0.69743502 0.66816807
-0.037747581 0.016522015 0.045889456 -0.036151737 0.010140181 0.99929535
-0.076238237 -0.02287359 0.10633711 -0.23342535 0.5799154 0.78052002
-0.077750422 -0.026670393 0.10877179 -0.39690149 0.34319806 0.85128444
-0.071067989 0.019298539 0.04128693 -0.35025841 -0.10838047 0.93036216
-0.042370446 0.016738666 0.046084214 0.0092867687 0.088460863 0.99603683
0.045250677 -0.021350596 0.0068234345 0.055264398 0.50455719 0.86160827
-0.044130061 0.015432017 0.04564853 -0.088339143 -0.20599055 0.97455895
-0.063656412 0.013415824 0.042493634 -0.17322162 -0.26953736 0.94728285
-0.042241182 0.01053618 0.044617306 -0.14779294 -0.078423366 0.98590469
-0.10972133 0.009014694 0.010408029 -0.78768581 -0.24039263 0.56724185
-0.11066358 0.0056383195 0.0080999006 -0.53432763 -0.26064944 0.80408752
-0.091349646 0.011700303 0.029395064 -0.59232551 -0.16868994 0.78784198
-0.017152933 -0.0610076 0.11900501 0.25172284 -0.2467974 0.93580323
-0.059602946 0.0081499377 0.041076608 -0.061398674 -0.37824753 0.9236666
-0.046512779 0.0046061203 0.043725319 -0.21753469 -0.1693226 0.96125412
-0.11014692 0.0035526371 0.0083546666 -0.78994602 -0.069061905 0.60927546
-0.08440429 0.014056784 0.042182259 -0.23345043 0.92633152 0.29565495
-0.080074593 0.011274481 0.047424991 0.33239713 0.80991119 0.48327714
-0.11069977 -0.00057935889 0.0055757356 -0.81995863 -0.24509719 0.51729685
-0.048083458 0.001112415 0.042558286 -0.21077321 -0.22116312 0.95218825
-0.081927441 0.012912856 0.045527253 0.13027841 0.88215786 0.45257732
-0.056032479 -0.0007275893 0.039966755 -0.26184818 -0.22179173 0.93927896
0.098960184 -0.057982296 0.014828685 0.16782348 0.93841231 0.30202445
0.07500691 -0.038186438 0.016871693 -0.022891784 0.64908487 0.76037222
-0.054696266 -0.047336001 0.11990663 -0.43376508 -0.38018435 0.81688958
-0.051759966 -0.0073246886 0.039282776 -0.22076675 -0.33482751 0.9160533
-0.086667389 0.013272166 0.039825153 -0.76784325 0.6404565 -0.015270346
-0.033283636 -0.0059505193 0.042277142 0.071180843 -0.34413457 0.9362188
-0.049255833 -0.0029225454 0.041230489 -0.21018314 -0.27411917 0.93844694
-0.005673199 -0.052884959 0.10668299 0.22135457 0.97347069 0.057947285
-0.044945061 0.029324375 0.047720838 -0.080186516 -0.034461919 0.99618447
-0.04452109 0.058041677 0.042975046 -0.1060921 0.33624855 0.93577904
-0.07640674 0.012052947 0.043626346 0.44220442 0.65422875 0.61354786
-0.092280902 0.072164431 0.011139126 -0.6046744 0.53257269 0.59222966
-0.096224695 0.063604243 0.013718241 -0.66774166 0.44607317 0.59593689
-0.069737867 0.083118111 0.019251529 -0.38276085 0.63060045 0.67515796
-0.11650599 0.057292156 -0.015690761 -0.87630296 0.38952291 0.2834889
-0.066066667 0.022950646 0.042949539 -0.28358728 -0.056854729 0.95726007
0.082044356 -0.0566344 0.022571875 -0.47168636 0.27489275 0.83782268
0.073841363 -0.054779101 0.02238393 -0.2784299 -0.11290006 0.95379841
0.079249822 -0.056229904 0.019369567 -0.45371354 0.14693657 0.87895095
0.079006657 -0.059236869 0.020671261 -0.64163256 0.041377537 0.76589596
0.030503422 -0.040737834 0.047380283 0.059888106 0.88498509 0.46175307
0.027278375 -0.042103175 0.048160847 -0.51137096 0.75839305 0.40415424
0.087217905 -0.062544338 0.024214838 0.088411234 -0.13635838 0.98670709
-0.086421333 -0.01357077 0.093923092 -0.45512539 0.58865947 0.6680882
-0.077313282 -0.018701984 0.10256619 -0.10104208 0.71797627 0.68869543
-0.033655733 -0.056555793 0.12214649 -0.043930925 -0.22776309 0.97272557
-0.079915486 -0.025752531 0.10685506 -0.53466183 0.32690874 0.77927417
-0.068020709 -0.024338417 0.10759079 0.23413384 0.80800736 0.54065359
-0.075329453 -0.028533613 0.11011445 -0.30796531 0.42380673 0.85178995
-0.071826354 -0.030368201 0.11249621 -0.24656361 0.48708907 0.83782542
-0.077280506 -0.031044193 0.10914517 -0.67057317 -0.064286552 0.73905331
-0.07438387 -0.032464162 0.11182959 -0.61935049 0.016612614 0.78493941
-0.065953031 -0.03385254 0.11564362 -0.088492125 0.54103088 0.83633465
-0.068371825 -0.035136372 0.11634287 -0.4361186 0.077453412 0.89655042
-0.096160531 0.038136125 0.02518351 -0.64488757 0.17203186 0.74466503
-0.055614572 0.1206639 -0.03297152 -0.15396151 0.83762461 0.52410084
-0.059799172 0.12117191 -0.035722774 -0.23119229 0.93052661 0.28402692
-0.049339782 -0.03899407 0.1184542 0.15928793 0.59077609 0.79095632
-0.06270618 0.11961749 -0.034800649 -0.29118744 0.82002163 0.49272224
-0.060956176 -0.037771743 0.11857787 -0.020236362 0.47018334 0.88233733
-0.055195879 0.11628872 -0.024172936 -0.20865926 0.85535461 0.47416317
-0.089686908 0.10465661 -0.034901399 -0.55848306 0.72225267 0.40798122
-0.054583095 -0.037568964 0.11805303 0.061197259 0.54062063 0.83903819
-0.10065565 0.10133306 -0.042165991 -0.68353629 0.65232062 0.32750103
-0.060256813 0.10826714 -0.012761051 -0.27960938 0.84190005 0.46154499
-0.10292041 0.099440895 -0.043123983 -0.68889308 0.52849591 0.49610418
-0.059356157 0.10647116 -0.0082932496 -0.27393979 0.85147339 0.44715881
-0.090582117 0.099729836 -0.027543195 -0.58557773 0.70362288 0.40251023
-0.10459802 0.094861642 -0.043320358 -0.67760599 0.46882594 0.56661576
-0.077720463 0.10394454 -0.018911313 -0.46997368 0.76923215 0.43290597
-0.10653472 0.095925942 -0.044984255 -0.73961157 0.59430581 0.31587359
-0.064891569 0.10512883 -0.0092391744 -0.32280657 0.83134711 0.45239246
0.025511177 0.096228167 -0.05604057 0.61633801 0.75324625 -0.22967011
-0.062522121 0.097945392 0.0048294398 -0.32483047 0.80613518 0.49460316
-0.0052954927 0.096609123 0.0084807714 0.2894094 0.7830196 0.55056655
-0.067009524 0.096789442 0.0033541659 -0.36248955 0.79448181 0.48723808
-0.060400046 0.096947894 0.0076482464 -0.27762631 0.81602591 0.50697756
-0.0079114931 0.094868839 0.011944542 0.27129719 0.75128686 0.60163683
-0.05349886 0.097594492 0.010241756 -0.22176829 0.81194717 0.53996438
-0.00094659644 0.091449074 0.012753991 0.34638336 0.70562249 0.6181556
-0.077034473 0.094723769 -0.0015654414 -0.45787969 0.768507 0.44692758
-0.069093458 0.094659574 0.0054623536 -0.38407746 0.77188855 0.50662959
-0.054558381 0.094963767 0.013131361 -0.23609444 0.76495278 0.59925586
0.0037988625 0.087174617 0.014865444 0.38324282 0.67835218 0.62686872
-0.059496801 0.092745073 0.014261377 -0.26875442 0.73906302 0.61770356
0.016462587 0.085432202 0.0071236305 0.52852207 0.6487689 0.54750741
0.048912622 0.06647636 -0.072534382 0.022717718 0.45537373 -0.89001107
-0.068369664 0.089461364 0.013199718 -0.37344894 0.71039724 0.59655046
-0.030748283 0.0878314 0.024743855 0.023760447 0.69214386 0.72136909
-0.043576743 0.08549875 0.026059458 -0.13118915 0.67641521 0.72474331
-0.036724932 0.087493643 0.024908956 -0.021794399 0.69230604 0.72127551
-0.033090726 0.083448902 0.028680263 -0.023318136 0.64146304 0.76680011
-0.060357057 -0.040847819 0.11975906 -0.27656773 0.031189738 0.96048868
-0.029073939 0.082792208 0.029334242 0.034856804 0.63687623 0.77017844
-0.044783764 0.078425512 0.03157609 -0.10688538 0.57169265 0.81347638
-0.027486775 0.077574998 0.033105467 0.065034904 0.58017111 0.81189454
-0.033001199 0.076651014 0.033940151 -0.01505243 0.57358843 0.81900591
0.0035865149 -0.055962808 0.10491 0.43317503 0.75139797 0.49775645
-0.036748972 0.078078717 0.032601867 -0.046688382 0.58899796 0.80678529
-0.081440128 0.076467387 0.01723621 -0.5267629 0.55883467 0.64048862
-0.076997779 0.0019316109 0.053240199 0.9567045 -0.16316777 0.2410264
0.04148126 0.091344751 -0.058438491 0.81262523 0.45481005 0.36440229
-0.013908775 0.074702673 0.032828137 0.20871679 0.5383954 0.81643653
-0.078258812 0.072015978 0.02337949 -0.50239968 0.53060484 0.68268144
-0.058963332 -0.029369451 0.1055567 0.5755958 0.81444752 -0.073250055
-0.013191861 -0.050939087 0.1098697 0.34604627 0.90962809 0.22984724
-0.03997153 0.071460299 0.03662847 -0.2178596 0.52921152 0.82004464
-0.0060097096 0.069729969 0.033514656 0.29319808 0.49353656 0.81881464
-0.059641153 0.073697232 0.031339876 -0.28513217 0.53525764 0.79510993
0.00065390405 0.067121051 0.032600988 0.34233847 0.45356205 0.82285285
-0.071797654 0.070940435 0.027398482 -0.40909275 0.50149441 0.76233029
0.039209332 0.066745698 -0.00050129479 0.75780803 0.47342187 0.44899866
-0.042795919 0.070053309 0.035400532 -0.073590823 0.4669925 0.88119429
-0.018188726 0.068332575 0.037587617 0.16602522 0.48435691 0.85897309
-0.069193698 -0.023401316 0.093196258 0.79394501 0.59058625 0.14442989
-0.07697054 0.068760291 0.026387103 -0.43366084 0.49553597 0.75258446
-0.062230311 0.069639631 0.032896973 -0.29223657 0.48686486 0.8231411
-0.022461172 -0.048030674 0.11290005 0.36093569 0.91515821 0.17947689
0.053902064 -0.015424262 -0.051576037 0.9175427 -0.38906005 -0.082150035
0.041785788 0.07452821 -0.01864065 0.78340197 0.56445312 0.26014435
-0.12831995 0.054932784 -0.067302562 -0.9624669 0.093872026 0.25464958
-0.013300519 0.066297725 0.037712868 0.20770365 0.44351682 0.87186748
-0.086963437 0.063735604 0.022618959 -0.57347423 0.44559762 0.68743813
-0.065954491 0.066041246 0.033628266 -0.33711213 0.45147288 0.82615286
-0.032849558 0.068228148 0.038895916 -0.0083257128 0.45275438 0.89159697
-0.072315522 0.064285912 0.031818829 -0.39721799 0.42980626 0.81085467
-0.082897365 0.066610008 0.023877311 -0.51074421 0.46843031 0.72091222
0.065085843 -0.019176343 -0.012460289 0.10879603 0.91783243 -0.38176966
-0.0025609969 0.11383799 -0.043735862 0.0021461693 0.67173767 -0.74078673
-0.052896135 -0.04369393 0.12166712 -0.095186122 0.30231181 0.94844514
-0.0035826559 0.010430566 0.04045514 0.3620646 -0.067110233 0.92973459
-0.0060388115 0.013171157 0.041641559 0.40659854 -0.064448349 0.91133153
-0.0048601879 0.014947219 0.04002184 0.35420886 -0.058291119 0.93334842
-0.0056052571 0.016707638 0.041614752 0.17860831 -0.28861967 0.94063741
-0.0079278182 0.015355716 0.04257074 0.23753481 0.25645214 0.93691546
-0.075021088 0.06074873 0.032017402 -0.45704773 0.37906903 0.8046211
-0.078882866 0.01368813 0.043435331 0.094216406 0.82505012 0.5571503
-0.017986439 0.058745559 0.041968852 0.16080232 0.35415444 0.92125905
-0.052191567 0.12415345 -0.034845326 0.025153985 0.45367137 0.8908146
-0.064176835 0.057140537 0.038439576 -0.3477529 0.35574597 0.86747539
-0.018612413 -0.04909724 0.11031853 0.31711593 0.9480449 -0.025483465
-0.039901931 -0.00070256559 0.043384019 -0.090845756 -0.24237858 0.96591961
-0.039531719 -0.014105882 0.038908534 -0.05034183 -0.40309408 0.91377342
